# .PCD v0.7 - Point Cloud Data file format
VERSION 0.7
FIELDS x y z intensity index
SIZE 4 4 4 4 4
TYPE F F F F F
COUNT 1 1 1 1 1
WIDTH 1146
HEIGHT 1
VIEWPOINT 0 0 0 1 0 0 0
POINTS 1146
DATA ascii
0.98657417 -0.19417579 0.67892563 288 69
0.962363 -0.19023085 0.64515018 290 70
0.95255655 -0.18835075 0.61955905 531 71
0.95121449 -0.18767796 0.59852135 565 72
0.9248147 -0.18350564 0.56714737 1464 73
0.92702532 -0.183358 0.5487982 1425 74
0.93536168 -0.18406636 0.53299701 402 75
0.9266752 -0.18241407 0.51088041 598 76
0.92407238 -0.18161577 0.49145672 741 77
0.92391121 -0.18116122 0.47315601 737 78
0.92529738 -0.18092397 0.45554462 620 79
0.922548 -0.18012463 0.43688065 651 80
0.92709702 -0.18032655 0.42046636 428 81
0.89481688 -0.17552611 0.39481851 585 82
0.95175833 -0.18283673 0.39122084 275 83
0.97490537 -0.18554036 0.37844127 828 84
0.9541114 -0.1823166 0.35637128 566 85
0.93969131 -0.17996831 0.33630955 567 86
0.94249761 -0.17993721 0.31961432 539 87
0.96366745 -0.18235242 0.30549955 696 88
0.94625753 -0.17962839 0.28597018 470 89
0.92945743 -0.17700158 0.26720151 702 90
0.92711753 -0.17629851 0.25035563 641 91
0.93832809 -0.17738098 0.23458758 680 92
0.94828534 -0.17829072 0.21839994 523 93
0.93715775 -0.17643715 0.20117 628 94
0.93167585 -0.17532893 0.18444788 594 95
0.92590386 -0.17418785 0.16793036 604 96
0.922822 -0.17339985 0.1515674 631 97
0.92243171 -0.1729615 0.13520694 844 98
0.91779655 -0.1719771 0.11906964 732 99
0.92475945 -0.17248268 0.10223911 735 100
0.92153889 -0.17168033 0.086030781 737 101
0.9210006 -0.17122112 0.069600955 776 102
0.92312974 -0.17109954 0.052798443 659 103
0.92397648 -0.17081226 0.036032751 727 104
0.38818905 -0.10129142 0.038982436 13 114
0.3680743 -0.098661512 0.038251981 62 115
0.34152985 -0.095269121 0.040587455 44 116
0.21882229 -0.080292664 0.081162713 5025 117
0.15140302 -0.071595833 0.083691418 13 124
0.16211335 -0.07257174 0.066168226 340 127
0.16453058 -0.072752737 0.06055662 3593 128
0.16180703 -0.072340816 0.058101609 4083 129
0.14176102 -0.069959007 0.067465231 525 130
0.15219538 -0.071048573 0.056251705 365 131
0.15746312 -0.071541384 0.048174098 5188 132
0.15535873 -0.071199968 0.045300744 1844 133
0.15790135 -0.071375415 0.038767725 3624 134
0.1150131 -0.065968506 0.045673236 1947 141
0.11148884 -0.065494493 0.044986784 3559 142
0.10730021 -0.064953566 0.045118272 3963 143
0.10381763 -0.064489312 0.044615202 4490 144
0.10035257 -0.064029336 0.044196613 4105 145
0.096906871 -0.063573852 0.043861702 3621 146
0.092856638 -0.063060239 0.044387177 4030 147
0.089468688 -0.062616423 0.044227988 4444 148
0.086704224 -0.062236577 0.043350697 4383 149
0.027775975 -0.054835752 0.054031096 6 169
0.024959693 -0.054524239 0.056321993 1009 170
0.021783778 -0.053798504 0.043102488 1455 173
0.015746549 -0.052912612 0.038808346 251 176
0.0068072136 -0.051697791 0.036540389 75 180
0.0042507229 -0.051431317 0.039308086 6 181
0.0022219103 -0.051092744 0.036140114 149 182
-0.00012944313 -0.050807688 0.036998957 41 183
-0.002374948 -0.050490025 0.035901442 686 184
-0.0046371007 -0.050147448 0.033843637 598 185
-0.0069819987 -0.049937196 0.037824124 5684 186
-0.0091277817 -0.049848482 0.045842595 3489 187
-0.011256022 -0.049573436 0.045900732 6825 188
-0.018979911 -0.048202135 0.030366167 4210 191
-0.021172008 -0.047970086 0.032589123 6759 192
-0.023647247 -0.047631543 0.031869739 8893 193
-0.026151862 -0.047290277 0.031196326 5707 194
-0.028685009 -0.04694641 0.030569732 5799 195
-0.030735491 -0.046736337 0.032943845 5769 196
-0.033646308 -0.04629897 0.030441269 3796 197
-0.036446951 -0.04590055 0.028978556 5310 198
-0.039085448 -0.045547619 0.028546944 5764 199
-0.041747995 -0.045192767 0.028165892 5451 200
-0.043415181 -0.045059912 0.031697869 6162 201
-0.046598807 -0.044593856 0.029479921 3825 202
-0.049870327 -0.044118073 0.027333379 2413 203
-0.05261939 -0.043756939 0.027161613 4826 204
-0.055387579 -0.043394603 0.027043834 4977 205
-0.058173858 -0.043031212 0.026980609 4430 206
-0.060977176 -0.042666912 0.026972562 4347 207
-0.063796483 -0.042301856 0.027020231 4056 208
-0.066630676 -0.041936196 0.027124196 4510 209
-0.07028152 -0.041422557 0.025459126 3682 210
-0.073173754 -0.041052409 0.025691718 3753 211
-0.076510124 -0.040604677 0.02508454 3773 212
-0.079887696 -0.040153362 0.024551779 3404 213
-0.08284121 -0.03977982 0.024976969 3449 214
-0.086281203 -0.039323807 0.024588466 3556 215
-0.089757748 -0.038864896 0.024277747 3486 216
-0.093269192 -0.038403321 0.024046004 3320 217
-0.096813858 -0.037939329 0.023894355 3010 218
-0.10039002 -0.037473168 0.023823887 2985 219
-0.10454874 -0.036913663 0.023007318 2802 220
-0.10762993 -0.036535345 0.023930594 2637 221
-0.11187127 -0.035969548 0.023301512 2337 222
-0.11676 -0.035303276 0.021980524 2287 223
-0.1205084 -0.034825474 0.022362784 2222 224
-0.12489938 -0.03424789 0.022056326 2118 225
-0.12869956 -0.033767797 0.022625759 1611 226
-0.13381386 -0.033083409 0.021776825 1642 227
-0.13833232 -0.032497235 0.021806657 1865 228
-0.14288817 -0.031908929 0.021951377 1796 229
-0.14816616 -0.031212555 0.021493793 1737 230
-0.15280132 -0.030619774 0.021884397 1767 231
-0.15817758 -0.029917108 0.021700025 1366 232
-0.16360429 -0.029211335 0.021660939 1350 233
-0.17054906 -0.028280199 0.020432323 1152 234
-0.17608936 -0.027567297 0.020714998 1281 235
-0.18166927 -0.026852814 0.021148175 880 236
-0.18882397 -0.025907611 0.02047649 683 237
-0.1960544 -0.024957502 0.020012811 873 238
-0.20256484 -0.024120133 0.02036047 892 239
-0.20992123 -0.023163352 0.020305902 851 240
-0.21814947 -0.022084853 0.019893363 451 241
-0.22563194 -0.021122266 0.020284683 556 242
-0.23482542 -0.019916862 0.019807488 531 243
-0.24410096 -0.018707432 0.019609928 478 244
-0.25514939 -0.01725005 0.018666461 331 245
-0.26801676 -0.015540939 0.017069861 202 246
-0.27581534 -0.014568675 0.018785566 299 247
-0.29150453 -0.012477044 0.016513348 246 248
-0.30470407 -0.010753043 0.016109034 202 249
-0.31533116 -0.0094042048 0.017436832 155 250
-0.33318454 -0.007044632 0.015719697 78 251
-2.5642109 0.29890868 -0.66699207 88 258
-2.7186894 0.31892505 -0.66496301 89 259
-2.8719447 0.33864644 -0.65719044 71 260
-3.0429628 0.36066291 -0.64890909 54 261
-3.2385795 0.3858802 -0.64087391 76 262
-3.4154932 0.40840456 -0.62171137 345 263
-3.7158308 0.4474408 -0.62284493 41 264
-4.0337319 0.48858958 -0.61685979 25 265
-4.2314434 0.51336026 -0.57849681 67 266
-4.2547321 0.51466101 -0.50573266 396 267
-4.2640252 0.51408756 -0.43058696 296 268
-4.282836 0.51477909 -0.35665789 289 269
-4.3240476 0.51842785 -0.28474337 97 270
-4.2425771 0.50586039 -0.2009398 314 271
-3.0992141 0.3536922 -0.046368748 598 272
-3.3670168 0.38751099 -0.0056510866 58 273
-3.4321368 0.3946183 0.051356122 218 274
-4.2220607 0.49610066 0.098491579 398 275
-4.2456684 0.49740911 0.17268282 476 276
-4.550581 0.53511178 0.25290772 355 277
-4.5298433 0.5305407 0.33214605 270 278
-4.5305285 0.52874011 0.41189638 280 279
-4.5258718 0.52625072 0.49142954 297 280
-4.5257673 0.52434254 0.57139254 267 281
-4.5311742 0.52313054 0.65217924 332 282
-3.0573628 0.33414853 0.54903698 605 283
-3.0534246 0.33235738 0.60304284 866 284
-3.0505042 0.33069161 0.6573348 738 285
-4.5247936 0.51463693 0.97566509 260 286
-4.5162201 0.51161683 1.0561312 272 287
-4.5256438 0.51083684 1.1407076 265 288
-4.5170708 0.50779629 1.2220368 281 289
-4.509943 0.5049265 1.3040797 287 290
-4.5032611 0.50210088 1.3867018 297 291
-4.5151153 0.50154299 1.47523 254 292
-4.4967966 0.49725604 1.5557392 254 293
-4.5034862 0.49601781 1.6446669 218 294
-4.4859357 0.49180138 1.7264079 243 295
-4.4743805 0.48830301 1.8107135 230 296
-4.4668241 0.48527157 1.8972312 223 297
-4.4769506 0.48434484 1.9918531 183 298
-4.4750981 0.48194367 2.0830371 152 299
-4.4750681 0.47972929 2.1763272 137 300
-4.4641619 0.47618914 2.2659519 126 301
-4.4773798 0.47547555 2.3685241 123 302
-4.4928131 0.4749701 2.4744551 188 303
-4.5015416 0.47362119 2.5792289 271 304
-4.3395324 0.4523043 2.590811 109 305
-4.0985427 0.4219493 2.5508857 214 306
-3.9258258 0.39970368 2.5429645 159 307
-3.7731774 0.37991428 2.5413883 189 308
-3.6209621 0.36030376 2.5346398 192 309
-3.4989612 0.34426254 2.5428741 271 310
-3.350127 0.32528293 2.5280299 247 311
-3.2318139 0.30987209 2.5298769 270 312
-3.0962214 0.29262638 2.5144422 332 313
-2.9950352 0.27933174 2.5208592 327 314
-2.8814516 0.26474768 2.513737 342 315
-2.7796884 0.25156286 2.5123591 362 316
-2.6863551 0.23938487 2.5146966 407 317
-2.5738549 0.22520639 2.4963973 388 318
-2.4853423 0.21371855 2.4960322 458 319
-2.3947701 0.20208575 2.4904952 434 320
-2.3072581 0.19085856 2.4846179 519 321
-2.2268956 0.18046227 2.4828615 491 322
-2.1472979 0.17021534 2.4789958 559 323
-2.0725048 0.16053607 2.4775083 572 324
-1.9984174 0.15099387 2.4741049 565 325
-1.928914 0.14198291 2.4734085 607 326
-1.8606682 0.13315795 2.4717567 609 327
-1.7961273 0.12476081 2.4723582 644 328
-1.7327294 0.11653015 2.4721987 672 329
-1.6570209 0.10715844 2.4527147 673 330
-1.5956379 0.099246874 2.4501321 711 331
-1.535403 0.091499284 2.4469247 771 332
-1.479556 0.084215984 2.4481747 741 333
-1.419912 0.076630235 2.4413745 792 334
-1.3645395 0.06949012 2.4391825 827 335
-1.3116628 0.062621653 2.4392078 840 336
-1.2577494 0.055708241 2.435446 834 337
-1.2062318 0.049050663 2.43402 843 338
-1.1546909 0.042437587 2.4305875 875 339
-1.1045052 0.035984401 2.4278371 904 340
-1.0551834 0.029647294 2.4249232 972 341
-1.0071051 0.023453038 2.4227962 958 342
-0.95669121 0.017131779 2.4132266 1034 343
-0.91213977 0.011289906 2.415561 967 344
-0.86743623 0.0054712556 2.4160812 1052 345
-0.82094026 -0.00042564049 2.410079 1056 346
-0.77718556 -0.0061009489 2.4097507 1057 347
-0.73368692 -0.011722799 2.4085703 1086 348
-0.69162834 -0.017228257 2.4103715 1135 349
-0.6488989 -0.022733677 2.408494 1115 350
-0.60747451 -0.028141802 2.4096637 1155 351
-0.56499159 -0.033554155 2.4052098 1175 352
-0.52284229 -0.038904049 2.3999481 1174 353
-0.48124984 -0.044185903 2.3948679 1181 354
-0.44189987 -0.049390603 2.3988237 1177 355
-0.40133324 -0.054573275 2.3951807 1272 356
-0.36196485 -0.059723083 2.3967185 1202 357
-0.32209882 -0.064826958 2.3935905 1213 358
-0.28293714 -0.069916323 2.3937106 1220 359
-0.038083576 1.3110992 0.18143882 234 0
-0.039518721 1.3264657 0.20020118 216 1
-0.83589876 10.575174 0.69566506 215 2
-0.83607656 10.566566 0.84245747 214 3
-0.83882183 10.587715 0.99164337 213 4
-0.83993536 10.589903 1.1399747 214 5
-0.83958858 10.575166 1.2869325 213 6
-0.84043604 10.574227 1.4355965 213 7
-0.8423894 10.586021 1.5864635 214 8
-0.84151399 10.565128 1.7333279 210 9
-0.90293127 11.261914 1.9979978 214 10
-0.90289992 11.249989 2.1568384 216 11
-0.90540069 11.267145 2.321739 138 12
-0.83226806 10.415514 2.3079705 51 13
-0.76982057 9.6881857 2.297956 74 14
-0.71007961 8.9933329 2.2752845 87 15
-0.67796248 8.6161547 2.3128548 129 16
-0.6263141 8.0163212 2.280968 135 17
-0.59040964 7.5975761 2.28297 116 18
-0.56109959 7.2549233 2.2958195 203 19
-0.5318327 6.9134355 2.2995765 203 20
-0.51169252 6.6765609 2.3279731 210 21
-0.48377177 6.3516269 2.319921 210 22
-0.45857415 6.0582852 2.3140094 180 23
-0.43855175 5.8242698 2.3219805 210 24
-0.42111531 5.6200304 2.3350792 211 25
-0.40249044 5.4027252 2.3373215 210 26
-0.38895521 5.2434206 2.3579509 129 27
-0.37163901 5.0416927 2.3557999 109 28
-0.34939939 4.7848005 2.3229175 211 29
-0.33224213 4.585732 2.309684 215 30
-0.27208659 3.8836794 2.3195276 219 35
-0.26380265 3.7860205 2.3343494 220 36
-0.25315821 3.6621599 2.3310571 221 37
-0.24492607 3.5654638 2.3409448 220 38
-0.23558432 3.456579 2.3405609 220 39
-0.22741216 3.3609231 2.345767 222 40
-0.21927169 3.265799 2.3487437 222 41
-0.21116668 3.1712496 2.3495071 223 42
-0.20310089 3.0773177 2.348073 222 43
-0.1962395 2.996897 2.3539193 222 44
-0.19271401 2.9534838 2.3856676 220 45
-0.18587834 2.8735883 2.3884203 217 46
-0.17794424 2.7817435 2.3794026 219 47
-0.17230514 2.7153299 2.3885896 220 48
-0.16446534 2.6248658 2.3757055 222 49
-0.15881401 2.5585873 2.3810854 220 50
-0.15318492 2.4926701 2.3850563 221 51
-0.14549994 2.4044127 2.3666508 223 52
-0.14001161 2.340312 2.3682108 226 53
-0.13448557 2.2759211 2.3677239 224 54
-0.12899128 2.2119989 2.3658793 227 55
-0.12359498 2.1492651 2.3634064 225 56
-0.11816996 2.0863447 2.3588953 226 57
-0.11378259 2.0347612 2.3648341 227 58
-0.10940956 1.9834183 2.369767 226 59
-0.10407937 1.9218667 2.3616397 227 60
-0.099753104 1.8712242 2.3644414 228 61
-0.096332811 1.8303726 2.3778417 227 62
-0.091101386 1.7702181 2.3663373 227 63
-0.086838089 1.7205223 2.3662205 228 64
-0.082598545 1.6711723 2.3651528 226 65
-0.075016953 1.5822525 2.3724108 228 67
-0.071704052 1.5429438 2.3818173 229 68
-0.068338059 1.5031246 2.38973 229 69
-0.064196028 1.4552215 2.384407 229 70
-0.060086004 1.4077564 2.3781869 228 71
-0.05675929 1.3685582 2.3838632 228 72
-0.052702837 1.3218381 2.3759902 229 73
-0.049451225 1.2835556 2.3811133 227 74
-0.046158276 1.2449011 2.3847284 230 75
-0.042920038 1.2068672 2.3885796 229 76
-0.038923234 1.1611314 2.3767381 230 77
-0.03571818 1.123583 2.3792341 230 78
-0.032479554 1.0857531 2.3802173 230 79
-0.029295288 1.0485364 2.381484 229 80
-0.026081234 1.0110828 2.3812363 230 81
-0.022881269 0.97383785 2.3803778 230 82
-0.019735135 0.93719733 2.3798368 231 83
-0.016564906 0.9003861 2.3777807 231 84
-0.013411321 0.86381209 2.3751318 231 85
-0.010310873 0.82783222 2.3728333 231 86
-0.0071919933 0.79174739 2.3690221 234 87
-0.0041257218 0.75624889 2.3655837 232 88
-0.0010447726 0.72068906 2.360636 233 89
0.0015146881 0.69013804 2.370405 232 90
0.0045409799 0.65522218 2.365366 231 91
0.0071111396 0.62461269 2.3742256 233 92
0.010141544 0.5897935 2.367197 233 93
0.01314836 0.55528855 2.3596306 234 94
0.015719507 0.52476853 2.3671026 233 95
0.018670518 0.49091634 2.3595066 232 96
0.021621529 0.45717272 2.3504188 234 97
0.024189416 0.42678982 2.3565288 234 98
0.026766904 0.39632577 2.3622162 233 99
0.02965343 0.36336657 2.3526795 232 100
0.032231294 0.33296219 2.3574862 234 101
0.034817215 0.30249465 2.3618703 233 102
0.037410699 0.27196977 2.3658309 234 103
0.040256932 0.23968658 2.3534601 233 104
0.042845353 0.20928416 2.3565488 233 105
0.045439791 0.17884229 2.3592153 232 106
0.048039757 0.14836679 2.3614585 234 107
0.050804771 0.11708795 2.3482988 232 108
0.053254269 0.087338306 2.3646741 234 109
0.055992484 0.056434769 2.3506505 234 110
0.058591846 0.026089992 2.3511944 235 111
0.061194211 -0.004259144 2.3513167 235 112
0.063799083 -0.034606829 2.3510172 235 113
0.066405967 -0.064947262 2.3502963 233 114
0.069014356 -0.095274635 2.3491542 235 115
0.071605623 -0.12646137 2.3625653 235 116
0.074233323 -0.15695158 2.3605676 234 117
0.076861024 -0.18741107 2.3581467 234 118
0.07948824 -0.21783407 2.3553026 237 119
0.082114458 -0.24821468 2.3520367 236 120
0.084739178 -0.27854714 2.3483486 236 121
0.087456308 -0.31107911 2.3600802 236 122
0.090095438 -0.34151602 2.3555183 236 123
0.092731535 -0.37188685 2.3505344 237 124
0.095505767 -0.40491074 2.3598785 236 125
0.098151967 -0.43533519 2.3540134 237 126
0.10079359 -0.46567559 2.3477261 238 127
0.10363767 -0.49948087 2.3566172 234 128
0.10628736 -0.5298506 2.3494389 235 129
0.10916059 -0.56385267 2.3563654 236 130
0.11181499 -0.59421223 2.3482928 235 131
0.1147444 -0.62886643 2.3551774 235 132
0.11770321 -0.6638236 2.3615174 235 133
0.1203715 -0.69424397 2.352056 234 134
0.1233475 -0.72925681 2.3564057 235 135
0.12637082 -0.76484978 2.361146 237 136
0.12904654 -0.79525459 2.3502812 236 137
0.13207972 -0.83081686 2.3530188 236 138
0.13516161 -0.86697298 2.3561172 234 139
0.13824123 -0.90299308 2.3577058 236 140
0.14092362 -0.93333614 2.3449228 235 141
0.1445224 -0.9764604 2.3609624 235 142
0.1476666 -1.0131046 2.3607807 234 143
0.15086129 -1.0503596 2.360904 236 144
0.1540443 -1.0873684 2.3595169 234 145
0.15727842 -1.1249938 2.3584125 234 146
0.16049705 -1.1623287 2.3557999 233 147
0.1631974 -1.1926187 2.3394148 233 148
0.167055 -1.2383972 2.3504601 234 149
0.17092565 -1.2842026 2.3597836 233 150
0.17422257 -1.3222595 2.3545504 234 151
0.17757194 -1.3609436 2.3495297 233 152
0.181549 -1.4078166 2.3564796 233 153
0.18557008 -1.4551386 2.3625436 233 154
0.18898907 -1.4944736 2.355314 234 155
0.19307911 -1.5424767 2.3596911 232 156
0.19720951 -1.5908837 2.3631527 233 157
0.20137888 -1.6396778 2.3656878 234 158
0.20558596 -1.6888429 2.3672867 234 159
0.2098293 -1.7383626 2.367939 233 160
0.21415657 -1.7888473 2.3684127 236 161
0.21377313 -1.7790298 2.2949336 233 162
0.21487099 -1.7883013 2.2464535 233 163
0.21505293 -1.7860324 2.1861291 235 164
0.21517196 -1.7831185 2.1270158 235 165
0.21598414 -1.7891189 2.0793521 235 166
0.21583745 -1.7831149 2.0203514 234 167
0.21646678 -1.7870275 1.9732904 235 168
0.21701294 -1.7899885 1.9264827 235 169
0.21741909 -1.7912867 1.8792522 236 170
0.21779966 -1.7923585 1.8330123 235 171
0.21809882 -1.7925036 1.7870772 235 172
0.21831715 -1.7917299 1.7414637 236 173
0.2184554 -1.7900468 1.6961882 235 174
0.21752843 -1.7752242 1.6410091 234 175
0.21749544 -1.7716098 1.5966303 234 176
0.21833318 -1.7788519 1.5619354 233 177
0.21815726 -1.7736173 1.5181866 234 178
0.21894193 -1.7803082 1.4844196 233 179
0.21961004 -1.785603 1.4501433 238 180
0.21923083 -1.7780676 1.4073479 238 181
0.21978354 -1.7820463 1.3734717 237 182
0.21926761 -1.7729725 1.3314409 236 183
0.21977541 -1.7764996 1.2985523 239 184
0.22016484 -1.778617 1.265264 237 185
0.21945497 -1.7673658 1.2243776 241 186
0.21973395 -1.7682332 1.1916015 236 187
0.22021618 -1.7691604 1.1270882 238 189
0.22042146 -1.7692437 1.095345 239 190
0.22050667 -1.7679073 1.0633307 240 191
0.22172481 -1.7803133 1.0386486 242 192
0.22291473 -1.7923776 1.0137963 238 193
0.22295162 -1.7905291 0.98248434 239 194
0.22286728 -1.7872534 0.95098293 237 195
0.22273657 -1.7834551 0.91973251 238 196
0.22378603 -1.7938795 0.89484721 238 197
0.22364959 -1.7900649 0.86428791 238 198
0.22463393 -1.799724 0.83931565 235 199
0.22525799 -1.8029525 0.78370237 238 201
0.22496158 -1.7973211 0.75380677 237 202
0.22581577 -1.8054562 0.72874349 240 203
0.22536132 -1.7979877 0.69892317 238 204
0.22494471 -1.7910037 0.66969866 239 205
0.22569892 -1.7979797 0.64473057 234 206
0.22512516 -1.7891749 0.61566108 237 207
0.22581527 -1.795406 0.59072316 238 208
0.22647634 -1.8012923 0.56570089 238 209
0.22579226 -1.7912455 0.53723866 238 210
0.22638974 -1.7963948 0.51227891 238 211
0.22695807 -1.8011996 0.48724991 237 212
0.22749716 -1.8056586 0.46215636 237 213
0.22848722 -1.8135365 0.4117949 238 215
0.2276786 -1.8021311 0.38461345 236 216
0.22809634 -1.8051748 0.35951602 240 217
0.2284846 -1.8078723 0.33437854 239 218
0.22884333 -1.8102227 0.30920577 238 219
0.22917247 -1.8122258 0.28400263 236 220
0.22947192 -1.8138813 0.25877386 239 221
0.22838026 -1.7992632 0.23279613 238 222
0.22861812 -1.8002138 0.20775194 239 223
0.22882643 -1.800819 0.18269677 238 224
0.22900513 -1.8010787 0.15763542 239 225
0.2291542 -1.8009928 0.13257267 237 226
0.22927359 -1.8005613 0.10751332 235 227
0.22936332 -1.7997843 0.082462192 238 228
0.20406669 -1.5041416 0.0726154 218 229
0.20280683 -1.4880011 0.052661605 229 230
0.15474004 -0.92932034 0.07624267 215 231
0.15343995 -0.91332209 0.064686522 227 232
0.15469441 -0.92690533 0.050365187 224 233
0.15071164 -0.87993425 0.042985417 228 234
0.14398289 -0.80135399 0.041177422 230 235
0.14254934 -0.78399998 0.032373697 236 236
0.14247102 -0.78229177 0.021448955 222 237
0.18354309 -1.2541952 -0.073972747 221 238
0.18337554 -1.2509723 -0.091418982 224 239
0.18318707 -1.2475088 -0.10881889 222 240
0.18424952 -1.2583975 -0.12940478 223 241
0.1840167 -1.2544097 -0.1469045 223 242
0.18376288 -1.2501808 -0.16434723 224 243
0.1848352 -1.2611198 -0.18582651 215 244
0.10854433 -0.38813329 0.040451564 231 245
0.10718888 -0.37224412 0.039265163 234 246
0.10583468 -0.3564001 0.038498275 231 247
0.10448249 -0.34060994 0.038149379 232 248
0.10305014 -0.32393891 0.038539082 233 249
0.10153929 -0.30640921 0.039704762 232 250
0.10036302 -0.29271263 0.039941527 235 251
0.099354222 -0.28094208 0.039814129 233 252
0.098674551 -0.27292201 0.038495168 235 253
0.097426891 -0.25849167 0.040085994 235 254
0.09626621 -0.24507391 0.041655548 233 255
0.095272392 -0.23356698 0.042751119 233 256
0.094603539 -0.22574672 0.042445078 234 257
0.093459375 -0.21259022 0.044959396 233 258
0.093114115 -0.20844561 0.043319613 233 259
0.09261068 -0.20253102 0.042698704 236 260
0.092186615 -0.19751769 0.041746795 235 261
0.091374606 -0.18816707 0.043345511 234 262
0.091108531 -0.18494472 0.041692771 234 263
0.090688005 -0.18000089 0.04112976 240 264
0.089964122 -0.1716809 0.042772107 234 265
0.089774869 -0.16933715 0.040885456 235 266
0.089508772 -0.16614048 0.039588884 236 267
0.089093238 -0.16128749 0.039474413 236 268
0.088310473 -0.15236837 0.042316593 231 269
0.088048324 -0.14923976 0.041324198 225 270
0.087640829 -0.14450757 0.041580252 236 271
0.08694803 -0.13663237 0.044355825 238 272
0.086762182 -0.13436954 0.043035112 240 273
0.086504631 -0.13131921 0.042381018 237 274
0.086037561 -0.12596945 0.043695726 235 275
0.085298032 -0.11764036 0.047720119 235 276
0.085597336 -0.12072185 0.042113006 234 277
0.084596969 -0.10956469 0.049064308 234 278
0.084351666 -0.10668985 0.048859254 234 279
0.083974652 -0.10238377 0.050088115 234 280
0.083339341 -0.095276386 0.054204009 233 281
0.083557434 -0.0974629 0.049309999 233 282
0.082805097 -0.089111872 0.055083819 235 283
0.082699545 -0.087788478 0.053808868 235 284
0.082592383 -0.086447641 0.052552409 235 285
0.082483627 -0.085089624 0.051314689 233 286
0.082312487 -0.083060533 0.05084987 233 287
0.082141481 -0.081035711 0.050422296 234 288
0.081852429 -0.077749625 0.051575378 234 289
0.081450559 -0.073267132 0.054361291 235 290
0.080711737 -0.065208338 0.061986819 235 291
0.080612496 -0.063982598 0.061043262 238 292
0.080512039 -0.062743969 0.060116835 238 293
0.080410384 -0.061492704 0.05920767 234 294
0.080146246 -0.058527742 0.06078168 235 295
0.079735145 -0.053855978 0.062447086 235 297
0.079227909 -0.048376944 0.068419814 233 298
0.079384953 -0.049846124 0.06344872 234 299
0.078746915 -0.043042097 0.072170869 235 300
0.078657992 -0.041959066 0.071534306 236 301
0.07852117 -0.04038218 0.071785972 236 302
0.07838551 -0.038821008 0.072066188 237 303
0.078206003 -0.036815114 0.073260851 234 304
0.077897616 -0.033504471 0.077173769 231 305
0.077383541 -0.028128378 0.085656941 229 306
0.077309415 -0.027232848 0.085226327 227 307
0.07719937 -0.025823161 0.08348643 224 309
0.077161364 -0.025284007 0.082166381 225 310
0.077158496 -0.02508729 0.07992173 230 311
0.077261046 -0.025915511 0.074873701 230 312
0.077530637 -0.028347682 0.0651052 234 313
0.077432208 -0.027168743 0.064673364 235 314
0.077299684 -0.025662329 0.065204196 235 315
0.07716877 -0.024176467 0.0657603 237 316
0.076976895 -0.022120729 0.068250902 236 317
0.076730751 -0.019574687 0.072699644 237 318
0.076931424 -0.021191094 0.06276191 235 319
0.076801702 -0.019724913 0.063396029 232 320
0.076673746 -0.018280972 0.064053938 229 321
0.076496169 -0.016401809 0.066681333 227 322
0.076275796 -0.014168435 0.071296275 228 323
0.075949222 -0.011056354 0.08085189 232 324
0.075868085 -0.010096324 0.080658831 232 325
0.075786635 -0.009133731 0.080479123 232 326
0.07570491 -0.0081687598 0.080312796 228 327
0.075604066 -0.0070538903 0.081148751 229 328
0.075505286 -0.0059643118 0.082002081 232 329
0.075375542 -0.0046595326 0.084857412 237 330
0.075206511 -0.0031153201 0.090717897 237 331
0.074980363 -0.0012695934 0.10158552 238 332
0.074909985 -0.00051724305 0.10252334 238 333
0.074829981 0.00027381536 0.10447032 244 334
0.074722566 0.0011655306 0.10942557 246 335
0.074579373 0.0021096016 0.1193921 243 336
0.074542813 0.0025368494 0.11937851 244 337
0.074506201 0.0029642405 0.11937085 240 338
0.074378245 0.0040914514 0.12438106 238 341
0.074385747 0.0051661786 0.10841064 243 342
0.074325077 0.0052175815 0.11742503 243 343
0.074286014 0.0058885599 0.11446264 244 344
0.074236348 0.0068997159 0.10852423 243 345
0.074160732 0.00857394 0.097633056 243 346
0.074087322 0.0096410308 0.094730571 242 347
0.073992684 0.011170641 0.088872559 239 348
0.073854394 0.01356707 0.078097366 233 349
0.073760994 0.014717023 0.077258587 228 350
0.073657073 0.016060116 0.075452358 226 351
0.07304509 0.023451447 0.07192865 220 357
0.073148407 0.021383476 0.083793864 233 358
0.07312113 0.02147289 0.086934485 233 359
0.073138632 0.020901732 0.091978744 231 360
0.073287629 0.018383471 0.10271281 229 361
0.073251173 0.018723954 0.10387557 227 362
0.07277222 0.025597777 0.086151026 231 363
0.072764672 0.025457624 0.089285813 230 364
0.072862387 0.023819361 0.096143551 234 365
0.072591305 0.027500045 0.088994265 236 366
0.072088107 0.034418583 0.074540302 236 367
0.072303049 0.031144723 0.085092589 236 368
0.072252676 0.031636905 0.08639916 238 369
0.072235078 0.031680882 0.088614881 231 370
0.072284818 0.030809224 0.092623785 228 371
0.07244084 0.028505422 0.099284634 227 372
0.071508691 0.041031171 0.076499932 231 373
0.071729213 0.037842903 0.084983014 236 374
0.071577907 0.039699178 0.083714738 235 375
0.071312718 0.043070361 0.079874963 236 376
0.070848562 0.049069494 0.071799897 234 377
0.070735931 0.050164349 0.074798755 235 379
0.070806563 0.049047995 0.078823395 234 380
0.070172831 0.057178933 0.068621345 235 381
0.069856949 0.061107464 0.065244935 235 382
0.069311582 0.068002418 0.057869889 235 383
0.069197096 0.069271185 0.05877696 236 384
0.069037549 0.071122378 0.058899216 239 385
0.068877012 0.072982706 0.059055507 239 386
0.068619497 0.076085456 0.057675041 236 387
0.068259187 0.080494665 0.05480992 238 388
0.06759055 0.088826358 0.047441565 237 389
0.067462102 0.090236768 0.048638798 236 390
0.067334957 0.091630526 0.049855515 235 391
0.067209147 0.093007378 0.051091492 234 392
0.067084692 0.094367027 0.052346483 236 393
0.066906966 0.096398972 0.052898236 233 394
0.066728823 0.09843298 0.053487815 237 395
0.066437401 0.10188712 0.05271022 234 396
0.066027448 0.10681844 0.050625101 233 397
0.065260932 0.11619612 0.044563204 236 398
0.065067865 0.1183812 0.045468412 235 399
0.064874843 0.12056277 0.046414204 233 400
0.064560369 0.12425219 0.046097256 235 401
0.064057909 0.13026717 0.043939859 235 402
0.063172951 0.14100616 0.038147546 233 403
0.062966213 0.14332168 0.03945072 235 404
0.06269601 0.14641823 0.040188134 233 405
0.062295251 0.15111913 0.039795168 233 406
0.061693847 0.15827937 0.037752517 231 407
0.061548527 0.15981624 0.039915293 236 408
0.061472729 0.16049998 0.042663135 233 409
0.061468668 0.16030727 0.045961156 233 410
0.060510539 0.17179076 0.041661404 234 411
0.059814908 0.18003798 0.039778389 235 412
0.059600361 0.18239756 0.041725859 233 413
0.059246048 0.18645701 0.042706922 234 414
0.058676772 0.1931237 0.042299867 229 415
0.057742968 0.20420338 0.039651029 232 416
0.057015836 0.21275015 0.038697883 231 417
0.056867395 0.21426834 0.041617148 234 418
0.056722291 0.21574612 0.044557266 233 419
0.056580551 0.21718322 0.047517627 232 420
0.05531764 0.23214827 0.044203334 230 421
-0.035470709 1.3259355 -0.44103611 224 422
-0.03391467 1.3055639 -0.41038799 235 423
-0.034679577 1.3131616 -0.39225012 237 424
-0.034266338 1.3066138 -0.36847693 237 425
-0.034981735 1.3136336 -0.35032821 234 426
-0.03442575 1.3054247 -0.32659733 235 427
-0.035091504 1.3118672 -0.30846882 236 428
-0.03454987 1.3038809 -0.28550094 234 429
-0.033894166 1.2945654 -0.26253977 235 430
-0.034483269 1.3001257 -0.24456775 235 431
-0.03505154 1.3054377 -0.22652009 235 432
-0.034306109 1.2951211 -0.20417947 236 433
-0.034826204 1.2998768 -0.18620485 237 434
-0.034102067 1.2898629 -0.1646108 236 435
-0.034574933 1.2940732 -0.14671272 237 436
-0.033710919 1.2824489 -0.12539735 235 437
-0.034136809 1.2861193 -0.10760576 239 438
-0.03454192 1.2895442 -0.089764759 235 439
-0.033678547 1.2779919 -0.069338784 236 440
-0.034037746 1.2808899 -0.051614046 235 441
-0.034376211 1.2835432 -0.033850625 234 442
-0.033350512 1.2701403 -0.014000505 237 443
-0.033643618 1.272276 0.0036102682 236 444
-0.033916071 1.2741688 0.021249175 235 445
-0.034167789 1.2758181 0.038912795 235 446
-0.035755165 1.2931231 0.055427462 243 447
-0.035967924 1.2942991 0.073351331 241 448
-0.036159568 1.295228 0.09128996 241 449
-0.037608333 1.3108472 0.10876461 238 450
-0.037759356 1.3112861 0.12692995 241 451
-0.037888929 1.3114743 0.14509979 241 452
-0.037997 1.311412 0.16327062 241 453
-0.24354577 -0.074948266 2.3901486 1330 0
-0.20444642 -0.07994917 2.3868773 1263 1
-0.16595611 -0.084996253 2.3888934 1252 2
-0.12728992 -0.089979127 2.3872354 1287 3
-0.088909052 -0.095027134 2.3898907 1269 4
-0.050391026 -0.099982217 2.3878717 1258 5
-0.011970049 -0.10497969 2.3881743 1270 6
0.02637645 -0.10983306 2.3828034 1306 7
0.06476704 -0.11484197 2.3837547 1305 8
0.10310533 -0.11978072 2.3820322 1259 9
0.14087358 -0.12444043 2.3716578 2110 10
0.18009101 -0.12976845 2.3815444 1234 11
0.21909046 -0.13490991 2.3847525 1252 12
0.25743076 -0.13978457 2.3803146 1266 13
0.29637 -0.14483835 2.3801522 1233 14
0.33523509 -0.14984256 2.3783045 1237 15
0.37481323 -0.15501621 2.3796995 1236 16
0.41361198 -0.15995529 2.3754663 1192 17
0.45381328 -0.1652223 2.3773849 1259 18
0.49354985 -0.17034204 2.3756359 1191 19
0.5340836 -0.17561702 2.3760691 1188 20
0.57529771 -0.1810082 2.377676 1166 21
0.61565065 -0.18617794 2.3746581 1144 22
0.65608013 -0.19133987 2.3708913 1113 23
0.69870365 -0.19692658 2.3730254 1097 24
0.74064362 -0.20233761 2.371491 1128 25
0.7827487 -0.20775093 2.369149 1108 26
0.82571065 -0.21330048 2.3678594 1084 27
0.86998039 -0.21906571 2.3685038 1070 28
0.91414315 -0.22477412 2.3673356 1059 29
0.96014136 -0.2307864 2.3689308 960 30
1.0060607 -0.23674434 2.3686657 999 31
1.0548648 -0.24318214 2.3728385 995 32
1.1000893 -0.24894014 2.367944 971 33
1.147325 -0.25502113 2.3656547 922 34
1.1976945 -0.26160973 2.3676114 875 35
1.2504611 -0.26856539 2.3719192 894 36
1.2981467 -0.27460954 2.3656106 875 37
1.3491414 -0.28117999 2.3633745 811 38
1.4015344 -0.287945 2.3616834 850 39
1.4526248 -0.29445392 2.3563254 832 40
1.5084969 -0.30171213 2.3563793 786 41
1.5729524 -0.31032231 2.3664408 765 42
1.6280996 -0.31736389 2.3613245 773 43
1.687205 -0.32500121 2.3596544 733 44
1.7498624 -0.33315825 2.3604457 676 45
1.8098836 -0.34084553 2.3558638 679 46
1.8715792 -0.3487516 2.3513377 645 47
1.9396282 -0.35760537 2.3519795 682 48
2.0042214 -0.36586517 2.346498 597 49
2.0657802 -0.3736074 2.335808 577 50
2.1387756 -0.3830671 2.3349087 524 51
2.2145042 -0.39288566 2.3341718 532 52
2.2865145 -0.4020766 2.3273313 510 53
2.383234 -0.41495487 2.3406603 464 54
2.4594429 -0.42465335 2.3322251 438 55
2.5542827 -0.4370887 2.3371663 476 56
2.6392667 -0.44797164 2.3306155 400 57
2.73104 -0.45979747 2.3266418 400 58
2.8171494 -0.47071251 2.3152773 414 59
2.9141073 -0.48316091 2.3091595 350 60
3.0198164 -0.49681604 2.3059978 350 61
3.1254754 -0.51037842 2.2991953 313 62
3.2318113 -0.52395564 2.2893124 305 63
3.3605857 -0.54069966 2.2900779 258 64
3.4699843 -0.55454218 2.2746015 241 65
3.6493402 -0.57835275 2.2963343 205 66
1.0106516 -0.19868731 0.73734522 367 67
0.9959048 -0.19603397 0.7062 417 68
0.98657417 -0.19417579 0.67892563 288 69
0.962363 -0.19023085 0.64515018 290 70
0.95255655 -0.18835075 0.61955905 531 71
0.95121449 -0.18767796 0.59852135 565 72
0.9248147 -0.18350564 0.56714737 1464 73
0.92702532 -0.183358 0.5487982 1425 74
0.93536168 -0.18406636 0.53299701 402 75
0.9266752 -0.18241407 0.51088041 598 76
0.92407238 -0.18161577 0.49145672 741 77
0.92391121 -0.18116122 0.47315601 737 78
0.92529738 -0.18092397 0.45554462 620 79
0.922548 -0.18012463 0.43688065 651 80
0.92709702 -0.18032655 0.42046636 428 81
0.89481688 -0.17552611 0.39481851 585 82
0.95175833 -0.18283673 0.39122084 275 83
0.97490537 -0.18554036 0.37844127 828 84
0.9541114 -0.1823166 0.35637128 566 85
0.93969131 -0.17996831 0.33630955 567 86
0.94249761 -0.17993721 0.31961432 539 87
0.96366745 -0.18235242 0.30549955 696 88
0.94625753 -0.17962839 0.28597018 470 89
0.92945743 -0.17700158 0.26720151 702 90
0.92711753 -0.17629851 0.25035563 641 91
0.93832809 -0.17738098 0.23458758 680 92
0.94828534 -0.17829072 0.21839994 523 93
0.93715775 -0.17643715 0.20117 628 94
0.93167585 -0.17532893 0.18444788 594 95
0.92590386 -0.17418785 0.16793036 604 96
0.922822 -0.17339985 0.1515674 631 97
0.92243171 -0.1729615 0.13520694 844 98
0.91779655 -0.1719771 0.11906964 732 99
0.92475945 -0.17248268 0.10223911 735 100
0.92153889 -0.17168033 0.086030781 737 101
0.9210006 -0.17122112 0.069600955 776 102
0.92312974 -0.17109954 0.052798443 659 103
0.92397648 -0.17081226 0.036032751 727 104
0.38818905 -0.10129142 0.038982436 13 114
0.3680743 -0.098661512 0.038251981 62 115
0.34152985 -0.095269121 0.040587455 44 116
0.21882229 -0.080292664 0.081162713 5025 117
0.15140302 -0.071595833 0.083691418 13 124
0.16211335 -0.07257174 0.066168226 340 127
0.16453058 -0.072752737 0.06055662 3593 128
0.16180703 -0.072340816 0.058101609 4083 129
0.14176102 -0.069959007 0.067465231 525 130
0.15219538 -0.071048573 0.056251705 365 131
0.15746312 -0.071541384 0.048174098 5188 132
0.15535873 -0.071199968 0.045300744 1844 133
0.15790135 -0.071375415 0.038767725 3624 134
0.1150131 -0.065968506 0.045673236 1947 141
0.11148884 -0.065494493 0.044986784 3559 142
0.10730021 -0.064953566 0.045118272 3963 143
0.10381763 -0.064489312 0.044615202 4490 144
0.10035257 -0.064029336 0.044196613 4105 145
0.096906871 -0.063573852 0.043861702 3621 146
0.092856638 -0.063060239 0.044387177 4030 147
0.089468688 -0.062616423 0.044227988 4444 148
0.086704224 -0.062236577 0.043350697 4383 149
0.027775975 -0.054835752 0.054031096 6 169
0.024959693 -0.054524239 0.056321993 1009 170
0.021783778 -0.053798504 0.043102488 1455 173
0.015746549 -0.052912612 0.038808346 251 176
0.0068072136 -0.051697791 0.036540389 75 180
0.0042507229 -0.051431317 0.039308086 6 181
0.0022219103 -0.051092744 0.036140114 149 182
-0.00012944313 -0.050807688 0.036998957 41 183
-0.002374948 -0.050490025 0.035901442 686 184
-0.0046371007 -0.050147448 0.033843637 598 185
-0.0069819987 -0.049937196 0.037824124 5684 186
-0.0091277817 -0.049848482 0.045842595 3489 187
-0.011256022 -0.049573436 0.045900732 6825 188
-0.018979911 -0.048202135 0.030366167 4210 191
-0.021172008 -0.047970086 0.032589123 6759 192
-0.023647247 -0.047631543 0.031869739 8893 193
-0.026151862 -0.047290277 0.031196326 5707 194
-0.028685009 -0.04694641 0.030569732 5799 195
-0.030735491 -0.046736337 0.032943845 5769 196
-0.033646308 -0.04629897 0.030441269 3796 197
-0.036446951 -0.04590055 0.028978556 5310 198
-0.039085448 -0.045547619 0.028546944 5764 199
-0.041747995 -0.045192767 0.028165892 5451 200
-0.043415181 -0.045059912 0.031697869 6162 201
-0.046598807 -0.044593856 0.029479921 3825 202
-0.049870327 -0.044118073 0.027333379 2413 203
-0.05261939 -0.043756939 0.027161613 4826 204
-0.055387579 -0.043394603 0.027043834 4977 205
-0.058173858 -0.043031212 0.026980609 4430 206
-0.060977176 -0.042666912 0.026972562 4347 207
-0.063796483 -0.042301856 0.027020231 4056 208
-0.066630676 -0.041936196 0.027124196 4510 209
-0.07028152 -0.041422557 0.025459126 3682 210
-0.073173754 -0.041052409 0.025691718 3753 211
-0.076510124 -0.040604677 0.02508454 3773 212
-0.079887696 -0.040153362 0.024551779 3404 213
-0.08284121 -0.03977982 0.024976969 3449 214
-0.086281203 -0.039323807 0.024588466 3556 215
-0.089757748 -0.038864896 0.024277747 3486 216
-0.093269192 -0.038403321 0.024046004 3320 217
-0.096813858 -0.037939329 0.023894355 3010 218
-0.10039002 -0.037473168 0.023823887 2985 219
-0.10454874 -0.036913663 0.023007318 2802 220
-0.10762993 -0.036535345 0.023930594 2637 221
-0.11187127 -0.035969548 0.023301512 2337 222
-0.11676 -0.035303276 0.021980524 2287 223
-0.1205084 -0.034825474 0.022362784 2222 224
-0.12489938 -0.03424789 0.022056326 2118 225
-0.12869956 -0.033767797 0.022625759 1611 226
-0.13381386 -0.033083409 0.021776825 1642 227
-0.13833232 -0.032497235 0.021806657 1865 228
-0.14288817 -0.031908929 0.021951377 1796 229
-0.14816616 -0.031212555 0.021493793 1737 230
-0.15280132 -0.030619774 0.021884397 1767 231
-0.15817758 -0.029917108 0.021700025 1366 232
-0.16360429 -0.029211335 0.021660939 1350 233
-0.17054906 -0.028280199 0.020432323 1152 234
-0.17608936 -0.027567297 0.020714998 1281 235
-0.18166927 -0.026852814 0.021148175 880 236
-0.18882397 -0.025907611 0.02047649 683 237
-0.1960544 -0.024957502 0.020012811 873 238
-0.20256484 -0.024120133 0.02036047 892 239
-0.20992123 -0.023163352 0.020305902 851 240
-0.21814947 -0.022084853 0.019893363 451 241
-0.22563194 -0.021122266 0.020284683 556 242
-0.23482542 -0.019916862 0.019807488 531 243
-0.24410096 -0.018707432 0.019609928 478 244
-0.25514939 -0.01725005 0.018666461 331 245
-0.26801676 -0.015540939 0.017069861 202 246
-0.27581534 -0.014568675 0.018785566 299 247
-0.29150453 -0.012477044 0.016513348 246 248
-0.30470407 -0.010753043 0.016109034 202 249
-0.31533116 -0.0094042048 0.017436832 155 250
-0.33318454 -0.007044632 0.015719697 78 251
-2.5642109 0.29890868 -0.66699207 88 258
-2.7186894 0.31892505 -0.66496301 89 259
-2.8719447 0.33864644 -0.65719044 71 260
-3.0429628 0.36066291 -0.64890909 54 261
-3.2385795 0.3858802 -0.64087391 76 262
-3.4154932 0.40840456 -0.62171137 345 263
-3.7158308 0.4474408 -0.62284493 41 264
-4.0337319 0.48858958 -0.61685979 25 265
-4.2314434 0.51336026 -0.57849681 67 266
-4.2547321 0.51466101 -0.50573266 396 267
-4.2640252 0.51408756 -0.43058696 296 268
-4.282836 0.51477909 -0.35665789 289 269
-4.3240476 0.51842785 -0.28474337 97 270
-4.2425771 0.50586039 -0.2009398 314 271
-3.0992141 0.3536922 -0.046368748 598 272
-3.3670168 0.38751099 -0.0056510866 58 273
-3.4321368 0.3946183 0.051356122 218 274
-4.2220607 0.49610066 0.098491579 398 275
-4.2456684 0.49740911 0.17268282 476 276
-4.550581 0.53511178 0.25290772 355 277
-4.5298433 0.5305407 0.33214605 270 278
-4.5305285 0.52874011 0.41189638 280 279
-4.5258718 0.52625072 0.49142954 297 280
-4.5257673 0.52434254 0.57139254 267 281
-4.5311742 0.52313054 0.65217924 332 282
-3.0573628 0.33414853 0.54903698 605 283
-3.0534246 0.33235738 0.60304284 866 284
-3.0505042 0.33069161 0.6573348 738 285
-4.5247936 0.51463693 0.97566509 260 286
-4.5162201 0.51161683 1.0561312 272 287
-4.5256438 0.51083684 1.1407076 265 288
-4.5170708 0.50779629 1.2220368 281 289
-4.509943 0.5049265 1.3040797 287 290
-4.5032611 0.50210088 1.3867018 297 291
-4.5151153 0.50154299 1.47523 254 292
-4.4967966 0.49725604 1.5557392 254 293
-4.5034862 0.49601781 1.6446669 218 294
-4.4859357 0.49180138 1.7264079 243 295
-4.4743805 0.48830301 1.8107135 230 296
-4.4668241 0.48527157 1.8972312 223 297
-4.4769506 0.48434484 1.9918531 183 298
-4.4750981 0.48194367 2.0830371 152 299
-4.4750681 0.47972929 2.1763272 137 300
-4.4641619 0.47618914 2.2659519 126 301
-4.4773798 0.47547555 2.3685241 123 302
-4.4928131 0.4749701 2.4744551 188 303
-4.5015416 0.47362119 2.5792289 271 304
-4.3395324 0.4523043 2.590811 109 305
-4.0985427 0.4219493 2.5508857 214 306
-3.9258258 0.39970368 2.5429645 159 307
-3.7731774 0.37991428 2.5413883 189 308
-3.6209621 0.36030376 2.5346398 192 309
-3.4989612 0.34426254 2.5428741 271 310
-3.350127 0.32528293 2.5280299 247 311
-3.2318139 0.30987209 2.5298769 270 312
-3.0962214 0.29262638 2.5144422 332 313
-2.9950352 0.27933174 2.5208592 327 314
-2.8814516 0.26474768 2.513737 342 315
-2.7796884 0.25156286 2.5123591 362 316
-2.6863551 0.23938487 2.5146966 407 317
-2.5738549 0.22520639 2.4963973 388 318
-2.4853423 0.21371855 2.4960322 458 319
-2.3947701 0.20208575 2.4904952 434 320
-2.3072581 0.19085856 2.4846179 519 321
-2.2268956 0.18046227 2.4828615 491 322
-2.1472979 0.17021534 2.4789958 559 323
-2.0725048 0.16053607 2.4775083 572 324
-1.9984174 0.15099387 2.4741049 565 325
-1.928914 0.14198291 2.4734085 607 326
-1.8606682 0.13315795 2.4717567 609 327
-1.7961273 0.12476081 2.4723582 644 328
-1.7327294 0.11653015 2.4721987 672 329
-1.6570209 0.10715844 2.4527147 673 330
-1.5956379 0.099246874 2.4501321 711 331
-1.535403 0.091499284 2.4469247 771 332
-1.479556 0.084215984 2.4481747 741 333
-1.419912 0.076630235 2.4413745 792 334
-1.3645395 0.06949012 2.4391825 827 335
-1.3116628 0.062621653 2.4392078 840 336
-1.2577494 0.055708241 2.435446 834 337
-1.2062318 0.049050663 2.43402 843 338
-1.1546909 0.042437587 2.4305875 875 339
-1.1045052 0.035984401 2.4278371 904 340
-1.0551834 0.029647294 2.4249232 972 341
-1.0071051 0.023453038 2.4227962 958 342
-0.95669121 0.017131779 2.4132266 1034 343
-0.91213977 0.011289906 2.415561 967 344
-0.86743623 0.0054712556 2.4160812 1052 345
-0.82094026 -0.00042564049 2.410079 1056 346
-0.77718556 -0.0061009489 2.4097507 1057 347
-0.73368692 -0.011722799 2.4085703 1086 348
-0.69162834 -0.017228257 2.4103715 1135 349
-0.6488989 -0.022733677 2.408494 1115 350
-0.60747451 -0.028141802 2.4096637 1155 351
-0.56499159 -0.033554155 2.4052098 1175 352
-0.52284229 -0.038904049 2.3999481 1174 353
-0.48124984 -0.044185903 2.3948679 1181 354
-0.44189987 -0.049390603 2.3988237 1177 355
-0.40133324 -0.054573275 2.3951807 1272 356
-0.36196485 -0.059723083 2.3967185 1202 357
-0.32209882 -0.064826958 2.3935905 1213 358
-0.28293714 -0.069916323 2.3937106 1220 359
-0.27601451 2.2287514 0.20030898 223 0
-0.27616113 2.2278142 0.23140571 224 1
-0.27857411 2.2412505 0.26323354 224 2
-0.27625352 2.2246647 0.2935468 223 3
-0.27853227 2.2372253 0.32574013 221 4
-0.28089786 2.2503102 0.35840499 221 5
-0.27822077 2.2314925 0.38811257 220 6
-0.277964 2.2279873 0.41923356 212 7
-1.6063954 10.608984 1.5846032 212 8
-1.6093268 10.618437 1.7375202 210 9
-1.7179364 11.293566 2.0004549 155 10
-1.7177206 11.282526 2.1611757 211 11
-1.7122172 11.238207 2.3159611 64 12
-1.51237 9.9727859 2.2170799 71 13
-1.391672 9.2063971 2.1928687 77 14
-1.3239435 8.7735395 2.2259345 87 15
-1.2360735 8.2079124 2.3361135 103 17
-1.1754338 7.8212671 2.3506129 129 18
-1.1077678 7.3913445 2.3415008 164 19
-1.056904 7.0670624 2.3531787 132 20
-1.0013225 6.7138791 2.3463638 161 21
-0.96000874 6.4502187 2.36025 211 22
-0.91653842 6.1735573 2.3621778 211 23
-0.88465452 5.9694386 2.3835046 211 24
-0.83666718 5.6655521 2.360328 210 25
-0.80040056 5.4349647 2.3581557 213 26
-0.77336782 5.2620463 2.3738637 212 27
-0.73733574 5.0336261 2.3604705 213 28
-0.71048272 4.8624272 2.3665957 214 29
-0.6838634 4.6929517 2.368784 216 30
-0.65935802 4.5368156 2.3727646 216 31
-0.63065612 4.3550291 2.3593557 217 32
-0.61091822 4.2288318 2.3698578 216 33
-0.58686393 4.076242 2.3625958 218 34
-0.56728429 3.9514451 2.3665342 219 35
-0.54555583 3.8136408 2.3594556 220 36
-0.52837533 3.7039959 2.3652439 219 37
-0.51332295 3.6075773 2.3762074 220 38
-0.4962709 3.4990551 2.3769107 220 39
-0.47713822 3.3779769 2.3662992 220 40
-0.46229196 3.283309 2.369967 223 41
-0.44751287 3.1892021 2.3714154 222 42
-0.43491942 3.1085744 2.3799207 223 43
-0.42027682 3.015589 2.3771603 223 44
-0.41181457 2.9603519 2.4004815 221 45
-0.40127814 2.892576 2.4128926 219 46
-0.38885665 2.8134577 2.4144969 217 47
-0.37650031 2.7348609 2.4143255 219 48
-0.36221939 2.6447461 2.4020832 220 49
-0.35188097 2.5786166 2.4080608 221 50
-0.3378002 2.490005 2.3919985 220 51
-0.32759118 2.4248874 2.3948379 221 52
-0.31385243 2.3386357 2.3757174 224 53
-0.30379093 2.274641 2.3754909 225 54
-0.29378909 2.2111075 2.3739038 225 55
-0.28569257 2.1590884 2.3824143 226 56
-0.27579874 2.0963943 2.378299 227 57
-0.26777089 2.0449438 2.3846114 226 58
-0.25799954 1.9831781 2.3780141 227 59
-0.25005311 1.9323759 2.3821666 226 60
-0.24213992 1.8818444 2.3853273 228 61
-0.2342626 1.8316002 2.3875046 227 62
-0.22475292 1.7717805 2.3762338 227 63
-0.21698155 1.7223352 2.376332 228 64
-0.2092547 1.6732308 2.3754764 228 65
-0.20157503 1.6244833 2.3736756 227 66
-0.19394524 1.5761094 2.3709402 228 67
-0.18781133 1.5365667 2.3795948 229 68
-0.18026365 1.4888189 2.3751376 228 69
-0.17277342 1.4414908 2.3697741 228 70
-0.16670913 1.4025266 2.3761752 228 71
-0.15931499 1.3559102 2.3691428 229 72
-0.15338624 1.3178427 2.3749712 229 73
-0.14600959 1.2714876 2.365447 231 74
-0.14013302 1.2338357 2.369885 228 75
-0.13418782 1.1958377 2.3728163 229 76
-0.12834163 1.1584549 2.3759964 229 77
-0.12125704 1.1140889 2.3642869 229 78
-0.11539903 1.0767649 2.3652365 229 79
-0.10956483 1.0396297 2.365567 230 80
-0.1038288 1.0031011 2.3661942 229 81
-0.098045006 0.9663595 2.3653095 230 82
-0.092358679 0.93021882 2.3647432 232 83
-0.086631417 0.8939088 2.3626649 231 84
-0.081976995 0.86356288 2.3748994 231 85
-0.075336084 0.82235104 2.3576801 231 86
-0.070684209 0.79208159 2.3689122 232 87
-0.065058142 0.75655037 2.364588 233 88
-0.059526429 0.7215963 2.3606458 232 89
-0.054856658 0.69129801 2.3704665 233 90
-0.0493121 0.65638238 2.3645275 233 91
-0.044626541 0.62603861 2.3734345 233 92
-0.039182298 0.59176528 2.3674266 232 93
-0.034483127 0.56138939 2.3754282 234 94
-0.029763289 0.53090757 2.3830035 233 95
-0.025023684 0.5003258 2.3901515 233 96
-0.020265222 0.46964973 2.3968704 232 97
-0.014868841 0.43588582 2.387455 234 98
-0.0095222667 0.40246966 2.3775263 235 99
-0.0042613223 0.36956924 2.3680789 235 100
0.00046462566 0.33921021 2.3729675 234 101
0.0056901723 0.30665156 2.3615816 234 102
0.01040934 0.27638862 2.3655899 234 103
0.015532345 0.24447873 2.3542633 234 104
0.020242877 0.21432306 2.3574011 234 105
0.024963595 0.18412802 2.360116 235 106
0.030009285 0.15285102 2.3464448 235 107
0.034713462 0.12281288 2.3482995 235 108
0.03942506 0.092752904 2.3497334 236 109
0.043930225 0.063069656 2.3667393 234 110
0.048866894 0.032590356 2.3513367 232 111
0.053595323 0.0024993159 2.3515062 235 112
0.058327552 -0.027590543 2.3512542 237 113
0.063062675 -0.057673465 2.3505809 235 114
0.067799784 -0.0877437 2.3494859 233 115
0.072537974 -0.11779547 2.3479698 236 116
0.077304244 -0.14896037 2.3619924 235 117
0.082076311 -0.17917602 2.3596182 236 118
0.086846724 -0.20935568 2.3568203 236 119
0.091614559 -0.23949361 2.3536 236 120
0.096378922 -0.269584 2.3499579 236 121
0.10113889 -0.29962111 2.3458946 237 122
0.10611315 -0.33188766 2.3562336 236 123
0.11089372 -0.36200333 2.3512971 236 124
0.11566712 -0.39204803 2.3459389 235 125
0.12043243 -0.42201599 2.3401601 234 126
0.12555972 -0.45520273 2.3496132 236 127
0.13034013 -0.48521358 2.3429496 235 128
0.13552117 -0.51862472 2.3504479 236 129
0.14031063 -0.54863966 2.3428957 235 130
0.14559388 -0.58269936 2.3503675 236 131
0.15039048 -0.61270571 2.3419178 236 132
0.15574616 -0.64716512 2.3483703 235 133
0.16111517 -0.68161881 2.3533213 235 134
0.16592941 -0.71165407 2.3434856 234 135
0.1713998 -0.74674749 2.3483479 236 136
0.17687356 -0.78177172 2.3517039 236 137
0.18169576 -0.8117733 2.3404655 235 138
0.18726997 -0.84742892 2.3436949 236 139
0.19283751 -0.8829515 2.3454165 234 140
0.19849567 -0.91907108 2.3474808 235 141
0.20419474 -0.95541525 2.3489504 234 142
0.20987689 -0.99156106 2.3489108 235 143
0.2156515 -1.0283136 2.3491802 234 144
0.22140235 -1.0648243 2.3479416 234 145
0.22724673 -1.1019472 2.3469892 234 146
0.23408985 -1.1461841 2.3586783 233 147
0.24002934 -1.183831 2.3563786 234 148
0.24702272 -1.2289301 2.3665094 234 149
0.25298023 -1.2665569 2.361968 232 150
0.26011422 -1.3124547 2.3705082 232 151
0.26622111 -1.3509995 2.3654325 233 152
0.27235162 -1.3896552 2.3596995 233 153
0.27967024 -1.4365829 2.3658295 231 154
0.28706497 -1.4839406 2.3710628 233 155
0.29323047 -1.5226355 2.362278 233 156
0.30082437 -1.5712072 2.3666263 231 157
0.30840605 -1.619596 2.3692293 231 158
0.31605443 -1.668353 2.3708963 231 159
0.32518536 -1.7272414 2.384201 232 160
0.33154148 -1.7669061 2.3713832 234 161
0.33218753 -1.7673364 2.3101962 233 162
0.33412296 -1.7767256 2.2615895 232 163
0.33908182 -1.8031689 2.1767237 235 165
0.33592713 -1.7781277 2.0940516 234 166
0.33719081 -1.7833046 2.0464602 235 167
0.33819997 -1.7868332 1.9983848 237 168
0.33915836 -1.7900975 1.95128 233 169
0.33838505 -1.7817349 1.8940336 236 170
0.34062546 -1.7938137 1.8578819 234 171
0.33939946 -1.7825841 1.8008459 235 172
0.3415004 -1.7938346 1.7656798 235 173
0.34171879 -1.7924809 1.7200696 234 174
