# .PCD v0.7 - Point Cloud Data file format
VERSION 0.7
FIELDS x y z intensity index
SIZE 4 4 4 4 4
TYPE F F F F F
COUNT 1 1 1 1 1
WIDTH 1131
HEIGHT 1
VIEWPOINT 0 0 0 1 0 0 0
POINTS 1131
DATA ascii
1.6087343 -0.86179543 1.9004219 228 55
1.5657665 -0.8444804 1.9038897 229 56
1.5230616 -0.82720882 1.9064063 227 57
1.4705868 -0.80511492 1.896522 225 58
1.4286077 -0.78800344 1.8970066 228 59
1.3674581 -0.7614218 1.873041 228 60
1.3360167 -0.74926984 1.8833003 229 61
1.2726544 -0.72459668 1.9012362 229 63
1.2322372 -0.70782799 1.8973254 230 64
1.200588 -0.6953668 1.9042416 231 65
1.1608021 -0.67874724 1.8987118 230 66
1.1294996 -0.66633737 1.9042828 229 67
1.0988356 -0.65420192 1.9100585 233 68
1.0600016 -0.63781703 1.9022313 230 69
1.0292104 -0.62548834 1.9058994 229 70
0.99855953 -0.61317736 1.9089807 230 71
0.96854174 -0.60114217 1.9123174 232 72
0.93818682 -0.58887488 1.914247 231 73
0.90846103 -0.57688326 1.9164562 232 74
0.88565069 -0.56854373 1.9310007 233 75
0.85563034 -0.55630678 1.9313468 233 76
0.82622951 -0.54434383 1.9320056 232 77
0.79658896 -0.53218764 1.9312439 234 78
0.76715648 -0.52007961 1.9299328 234 79
0.738334 -0.5082441 1.9289709 236 80
0.70933104 -0.49623924 1.9265852 235 81
0.68093044 -0.48450553 1.9245725 232 82
0.65811759 -0.47593576 1.9357018 236 83
0.62963301 -0.46404332 1.9318352 236 84
0.60173732 -0.45241857 1.9283743 235 85
0.57375789 -0.44066399 1.9234883 235 86
0.55100727 -0.4320116 1.9330076 235 87
0.5233798 -0.42033899 1.927201 237 88
0.49632117 -0.40892887 1.9218442 236 89
0.47362664 -0.40022129 1.9302 237 90
0.44666061 -0.38872623 1.9230132 236 91
0.42397332 -0.37997156 1.9306237 236 92
0.39765787 -0.36874765 1.9235194 235 93
0.3714101 -0.35745639 1.9149992 233 94
0.34886029 -0.34868193 1.9214771 235 95
0.32326123 -0.33766383 1.9130803 234 96
0.30075788 -0.32885981 1.9188347 236 97
0.27542073 -0.31782836 1.9086453 234 98
0.25299621 -0.30900821 1.9136801 235 99
0.23051675 -0.30014306 1.9183793 235 100
0.20582767 -0.28929698 1.9070072 235 101
0.18345571 -0.28042805 1.9109963 236 102
0.1610422 -0.27151972 1.9146503 236 103
0.13859156 -0.26257366 1.9179686 235 104
0.11485261 -0.25208092 1.9060798 233 105
0.093596153 -0.24457543 1.9235957 235 106
0.070190623 -0.23417072 1.9109899 236 107
0.047828168 -0.22516905 1.9129428 236 108
0.025450507 -0.21613869 1.9145603 236 109
0.0030620117 -0.20708135 1.9158422 237 110
-0.019332999 -0.19799882 1.9167881 236 111
-0.041730165 -0.18889284 1.9173979 234 112
-0.064125136 -0.17976519 1.9176713 235 113
-0.086513571 -0.17061767 1.9176086 237 114
-0.10889112 -0.161452 1.9172096 237 115
-0.13125345 -0.15226997 1.9164743 236 116
-0.15359621 -0.14307341 1.9154031 237 117
-0.17591506 -0.13386406 1.913996 236 118
-0.19820568 -0.12464371 1.9122534 237 119
-0.22046375 -0.11541418 1.9101754 235 120
-0.24451883 -0.10642727 1.9226482 234 121
-0.26689047 -0.097104833 1.9198773 237 122
-0.2915808 -0.087874852 1.9325938 237 123
-0.31405985 -0.078461282 1.9291185 239 124
-0.33648387 -0.069047488 1.925305 238 125
-0.35884848 -0.059635267 1.9211535 237 126
-0.38114938 -0.050226465 1.9166651 237 127
-0.40675911 -0.040493153 1.9274769 237 128
-0.42912018 -0.031011596 1.9222704 238 129
-0.45494539 -0.021070398 1.9312954 238 130
-0.47733414 -0.011529006 1.9253662 237 131
-0.4996362 -0.0020003691 1.9190993 238 132
-0.52622008 0.0082678646 1.9278684 239 133
-0.5308249 0.014599919 1.8615394 232 134
-0.52904516 0.0193367 1.7801291 234 135
-0.52991366 0.024177462 1.7132841 234 136
-0.52947557 0.028404631 1.6476315 237 137
-0.52744079 0.03196127 1.5822537 235 138
-0.52901107 0.036028281 1.5312088 234 139
-0.5293597 0.039583229 1.4803602 234 140
-0.53441358 0.044051759 1.444531 238 141
-0.53290921 0.046762146 1.3949904 237 142
-0.52983242 0.048874065 1.3447988 240 143
-0.5320437 0.052150175 1.3094394 237 144
-0.53302151 0.054973796 1.2733164 237 145
-0.52716953 0.055838987 1.2248137 237 146
-0.53335708 0.059804633 1.2033767 239 147
-0.53231972 0.061709151 1.1686862 239 148
-0.5304864 0.063274458 1.1342055 240 149
-0.52786285 0.064501867 1.0999516 240 150
-0.53172004 0.06749019 1.0788965 238 151
-0.52769899 0.068120047 1.045042 239 152
-0.53049749 0.070661426 1.0242038 240 153
-0.53337008 0.073171839 1.0042782 239 154
-0.53529638 0.075347409 0.98358321 240 155
-0.52871406 0.074874356 0.95057642 238 156
-0.53016055 0.076778516 0.93100572 238 157
-0.52169734 0.075554416 0.89774477 238 158
-0.53069192 0.079710707 0.89054871 238 159
-0.53090096 0.081087813 0.87130141 243 160
-0.53012168 0.082105979 0.8513875 240 161
-0.52952605 0.083137289 0.83239591 237 162
-0.52792943 0.083802253 0.81277204 239 163
-0.53582257 0.087516442 0.80546057 237 164
-0.53419572 0.08810614 0.78677428 240 165
-0.53154927 0.088318512 0.76750517 239 166
-0.52850604 0.08835645 0.74842107 239 167
-0.53556681 0.091732383 0.74108458 238 168
-0.53255385 0.091718763 0.72295308 239 169
-0.52850014 0.091314644 0.70430648 237 170
-0.52474934 0.090973318 0.68656778 240 171
-0.53101194 0.09402059 0.67927194 238 172
-0.52597898 0.093183279 0.66112107 237 173
-0.53191203 0.096097633 0.65380025 238 174
-0.5155353 0.091262579 0.62618768 241 175
-0.5326156 0.098031148 0.62927145 239 176
-0.52641231 0.096673131 0.61175764 237 177
-0.53170687 0.099328011 0.60441768 237 178
-0.52493471 0.097713754 0.58726001 240 179
-0.52991319 0.10023849 0.57993603 239 180
-0.52334958 0.098644763 0.56374168 237 181
-0.52802473 0.10104442 0.55643547 238 182
-0.52016586 0.098935157 0.54004097 240 183
-0.51277184 0.096958682 0.52449679 237 184
-0.51694429 0.099143028 0.51733935 238 185
-0.50825924 0.096648365 0.50165987 237 186
-0.52500516 0.10340862 0.50283253 239 187
-0.51592416 0.10073508 0.48740885 237 188
-0.532682 0.10753396 0.48807889 238 189
-0.52321213 0.10468364 0.4729231 239 190
-0.52671301 0.10660514 0.46559572 240 191
-0.51760483 0.10383993 0.45137283 238 192
-0.52082962 0.10564339 0.44412413 238 193
-0.52395922 0.10741134 0.43682519 236 194
-0.52699298 0.10914347 0.42947733 237 195
-0.51624584 0.10568655 0.41558743 238 196
-0.51900846 0.10730052 0.40834999 238 197
-0.5216763 0.10887867 0.40106922 237 198
-0.52424878 0.11042072 0.3937465 240 199
-0.51274562 0.10659768 0.38071132 236 200
-0.51505888 0.10802519 0.37351757 237 201
-0.51727808 0.10941675 0.3662872 237 202
-0.5194028 0.11077209 0.35902166 235 203
-0.5080905 0.10694607 0.34719262 237 204
-0.49568486 0.10266832 0.33544099 236 205
-0.51176131 0.10940456 0.33289766 237 206
-0.51345682 0.11057962 0.32570642 238 207
-0.51505852 0.11171821 0.31848788 238 208
-0.51656622 0.11282012 0.31124344 238 209
-0.51797944 0.11388512 0.30397451 237 210
-0.5192982 0.11491305 0.29668251 238 211
-0.520522 0.11590369 0.28936881 238 212
-0.52165067 0.11685683 0.28203487 239 213
-0.5080176 0.11196189 0.27201086 238 214
-0.5236218 0.11864993 0.26731193 237 215
-0.50974447 0.11362794 0.25769424 239 216
-0.51046842 0.11440548 0.25051406 237 217
-0.51109928 0.11514583 0.24332118 239 218
-0.51163673 0.11584884 0.23611699 237 219
-0.51208085 0.11651437 0.22890288 237 220
-0.51243156 0.11714229 0.22168025 238 221
-0.51268864 0.1177325 0.21445051 238 222
-0.51285213 0.11828485 0.20721506 238 223
-0.51292193 0.11879924 0.19997531 237 224
-0.51289821 0.1192756 0.19273265 237 225
-0.49889386 0.11404335 0.18547526 237 226
-0.44409102 0.092082739 0.17920792 237 227
-0.43735605 0.089736611 0.1731822 239 228
-0.4370198 0.09000966 0.16706765 238 229
-0.43660468 0.090250254 0.16095656 236 230
-0.43703267 0.09083946 0.15478157 234 231
-0.43737933 0.091396913 0.14858469 238 232
-0.4394826 0.092686072 0.14217459 239 233
-0.44333214 0.094708189 0.1354695 238 234
-0.4388428 0.093258545 0.12975129 239 235
-0.42972121 0.089862734 0.12484281 236 236
-0.42694035 0.089110211 0.11913352 233 237
-0.40772757 0.081442818 0.11646581 235 238
-0.39669901 0.077188209 0.11274974 236 239
-0.38927266 0.074435279 0.10857835 236 240
-0.38902366 0.074710429 0.10296325 237 241
-0.39049485 0.075718358 0.096897297 234 242
-0.39456117 0.077837408 0.090067104 232 243
-0.40297294 0.081823587 0.081859037 226 244
-0.40857235 0.084627375 0.07415539 221 245
-0.40785247 0.084734797 0.068174154 215 246
-0.4079316 0.085188046 0.061901823 225 247
-0.40967298 0.086362451 0.05499953 223 248
-0.41479343 0.089006439 0.046762273 221 249
-0.42583913 0.094236121 0.036053762 224 250
-0.43753469 0.099778518 0.024640188 223 251
-0.45071635 0.10600117 0.012133688 237 252
-0.44829169 0.10543756 0.0057772845 235 253
-0.44663358 0.10521005 -0.00092306733 237 254
-0.4448843 0.10494463 -0.0076130629 236 255
-0.44388077 0.10501011 -0.014695525 235 256
-0.44443756 0.1057696 -0.022624031 236 257
-0.44817066 0.10794568 -0.032331571 236 258
-0.44517225 0.10714594 -0.038661122 237 259
-0.44209328 0.10631037 -0.044947252 236 260
-0.43893445 0.10543919 -0.051188782 236 261
-0.4477098 0.10992108 -0.064570621 234 262
-0.44429469 0.10895124 -0.070901483 232 263
-0.44079924 0.10794528 -0.07718271 229 264
-0.43722421 0.10690337 -0.083413005 220 265
-0.046735249 -0.065733999 0.1127298 184 320
-0.045793071 -0.066101119 0.11246661 184 321
-0.044847913 -0.066470399 0.11221749 206 322
-0.036112387 -0.072695374 0.15181446 203 324
-0.035680365 -0.072865523 0.15172082 210 325
-0.035388637 -0.072912894 0.15065141 211 326
-0.035070449 -0.072971188 0.14958376 210 327
-0.022203486 -0.078392349 0.15206248 184 356
-0.021780927 -0.078572661 0.1521778 210 357
-0.02109291 -0.078797206 0.15133685 210 358
-0.019283717 -0.079647869 0.15300271 210 363
-0.018534392 -0.079901688 0.15222485 211 364
-0.01776338 -0.080165431 0.15146293 210 365
0.57451296 -0.27774689 -0.50864935 225 392
0.5727874 -0.27842057 -0.48810992 229 393
0.57131177 -0.27913657 -0.46846196 233 394
0.5794909 -0.28307223 -0.45959124 234 395
0.57669771 -0.28328443 -0.43943176 234 396
0.5735057 -0.28332055 -0.41946933 234 397
0.57061535 -0.28342062 -0.40038964 235 398
0.5779146 -0.28699741 -0.39151189 238 399
0.57369691 -0.2865836 -0.37201211 236 400
0.5806278 -0.29001355 -0.36308077 238 401
0.58744013 -0.29340219 -0.35404316 235 402
0.58308464 -0.29286605 -0.33552715 238 403
0.58953959 -0.29611176 -0.32644555 238 404
0.59587425 -0.29931492 -0.31726471 237 405
0.58993781 -0.29814875 -0.29851663 237 406
0.59591115 -0.30120522 -0.28932264 238 407
0.60176289 -0.30421826 -0.28003663 238 408
0.60749191 -0.30718723 -0.27066031 237 409
0.60128188 -0.30583608 -0.25300297 236 410
0.59395128 -0.30404547 -0.23507521 238 411
0.59910244 -0.30677134 -0.22580475 236 412
0.57910371 -0.30029416 -0.20061991 236 413
0.58381611 -0.30282646 -0.19156361 235 414
0.58840919 -0.30531496 -0.1824342 234 415
0.57967269 -0.30287403 -0.16564122 235 416
0.58393252 -0.30522269 -0.15656739 237 417
0.58807307 -0.30752707 -0.14742735 237 418
0.57945752 -0.30506659 -0.13166142 235 419
0.5697152 -0.30215341 -0.11578417 236 420
0.57333487 -0.30423146 -0.10684717 235 421
0.57683724 -0.30626541 -0.097853571 235 422
0.58022177 -0.3082549 -0.08880496 238 423
0.58348787 -0.31019956 -0.079703331 236 424
0.57356107 -0.30712321 -0.065135449 234 425
0.57652408 -0.30893779 -0.056127727 235 426
0.56528986 -0.3053171 -0.041714415 232 427
0.56795371 -0.30700159 -0.032824963 234 428
0.57050145 -0.30864152 -0.023893207 232 429
0.57293254 -0.31023651 -0.014920905 233 430
0.57524651 -0.31178629 -0.0059098005 234 431
0.57744294 -0.31329054 0.0031383634 232 432
0.56510574 -0.30913576 0.016305894 233 433
0.58148146 -0.31616127 0.021338835 235 434
0.56881726 -0.3118484 0.034139991 237 435
0.5704987 -0.31313655 0.043101847 235 436
0.57206351 -0.31437892 0.052091226 235 437
0.57351142 -0.31557527 0.061106421 235 438
0.57484204 -0.31672534 0.070145659 236 439
0.57605529 -0.31782892 0.079207219 233 440
0.59185797 -0.32473505 0.08594764 234 441
0.60759008 -0.33164316 0.093147419 233 442
0.62232089 -0.33818108 0.10092484 233 443
0.62311471 -0.33916187 0.11070735 236 444
0.62378174 -0.34009176 0.12050428 236 445
0.61044961 -0.33538312 0.13147296 235 446
0.61085379 -0.33619326 0.141085 236 447
0.62502044 -0.3425746 0.14996262 238 448
0.62517899 -0.34329945 0.15979822 235 449
0.65391833 -0.35565168 0.16896485 233 450
0.07613185 0.028686503 1.9692323 1819 0
0.062244233 0.0013025664 1.9656928 1841 1
0.048302617 -0.025876645 1.9596223 1849 2
0.034649733 -0.053152289 1.9590107 1803 3
0.020662609 -0.079675496 1.9468963 1881 4
0.0071443878 -0.10704409 1.9492186 1887 5
-0.0065122955 -0.13400848 1.9460278 1836 6
-0.020165298 -0.16077778 1.9413185 1858 7
-0.033789631 -0.18742548 1.9360901 1813 8
-0.047360022 -0.21365657 1.9283663 1906 9
-0.061009381 -0.24095991 1.9280356 1816 10
-0.074527994 -0.26708242 1.9202719 1903 11
-0.088326454 -0.29491651 1.9218186 1777 12
-0.10209066 -0.32224944 1.9198664 1882 13
-0.11544798 -0.34761557 1.9085984 2053 14
-0.12933318 -0.37529963 1.9075258 1834 15
-0.14328116 -0.40303957 1.9058878 1771 16
-0.15699552 -0.42976576 1.8998361 1846 17
-0.1710247 -0.45752993 1.8970783 1848 18
-0.18519162 -0.48561695 1.8946998 1858 19
-0.19941859 -0.51375192 1.8917352 1725 20
-0.21318229 -0.54030454 1.8834802 1743 21
-0.22736578 -0.56809455 1.8784307 1783 22
-0.24158008 -0.59587443 1.8728005 1787 23
-0.25645268 -0.62547082 1.8711952 1775 24
-0.27061775 -0.65289062 1.8634499 1751 25
-0.28534982 -0.68182439 1.8587626 1729 26
-0.30013785 -0.71079201 1.8534433 1636 27
-0.31544518 -0.74105263 1.8501663 1624 28
-0.33051461 -0.77053308 1.8444345 1640 29
-0.34751761 -0.80499738 1.847683 1636 30
-0.36294749 -0.83513248 1.8414055 1544 31
-0.37880456 -0.86625105 1.8361609 1578 32
-0.39474082 -0.89743865 1.8301913 1571 33
-0.40995225 -0.92666823 1.8201288 1493 34
-0.42641267 -0.95893514 1.8143952 1513 35
-0.44296107 -0.99128217 1.8078845 1492 36
-0.4593702 -1.0231531 1.7997797 1352 37
-0.47629368 -1.0561576 1.7925097 1345 38
-0.49329743 -1.0892226 1.7844262 1359 39
-0.51109546 -1.1240666 1.7778634 1327 40
-0.52825731 -1.1572406 1.7681041 1291 41
-0.55181473 -1.2054665 1.7764546 1160 42
-0.57132459 -1.2438415 1.770715 1179 43
-0.59044367 -1.2811249 1.7624767 1167 44
-0.61239552 -1.3248541 1.7604721 1127 45
-0.63484746 -1.3695194 1.757937 1039 46
-0.65638119 -1.4118418 1.7513312 1098 47
-0.67807555 -1.454339 1.7435349 990 48
-0.72129154 -1.5457901 1.7829672 330 49
-0.8130073 -1.7468247 1.9228851 401 50
-0.77392298 -1.6503189 1.7756122 503 51
-0.77062064 -1.6354825 1.7091156 872 52
-0.79493558 -1.6829127 1.6987561 810 53
-0.82818109 -1.7500817 1.7033432 728 54
-0.85656679 -1.8060756 1.69629 711 55
-0.88552493 -1.8630724 1.6880718 693 56
-0.91471219 -1.9203075 1.6780688 687 57
-0.94099623 -1.9708935 1.6613271 658 58
-0.97299737 -2.0337982 1.6515871 592 59
-1.0070186 -2.1008205 1.6424166 586 60
-1.0409467 -2.1673226 1.6305505 572 61
-1.0740144 -2.2316508 1.6150404 516 62
-1.1098539 -2.3016827 1.600752 466 63
-1.1492834 -2.3791301 1.5882679 440 64
-1.1870973 -2.4527428 1.5709517 379 65
-0.84568179 -1.7139003 1.1270888 983 66
-0.84622574 -1.7097474 1.0846827 1037 67
-0.84713376 -1.7064716 1.0434697 964 68
-0.84803951 -1.7032818 1.0029919 1034 69
-0.84736639 -1.6968364 0.9617635 1030 70
-0.84789747 -1.6930312 0.92237794 1090 71
-0.84886962 -1.6902335 0.88399392 1067 72
-0.84622318 -1.6799114 0.8433845 1144 73
-0.84770489 -1.6783346 0.80661952 1087 74
-0.84761769 -1.6735374 0.76923019 1109 75
-0.8471905 -1.6681004 0.73217344 1198 76
-0.84852958 -1.6663976 0.69670045 1147 77
-0.84533221 -1.6553452 0.65911269 1244 78
-0.84348351 -1.6471676 0.62292194 1252 79
-0.84301919 -1.6419123 0.58793741 1220 80
-0.84440237 -1.6405058 0.55414617 1244 81
-0.84507304 -1.6376687 0.52032912 1267 82
-0.84285295 -1.6289552 0.48582399 1252 83
-0.84469587 -1.6285888 0.45299631 1265 84
-0.84320647 -1.6214591 0.41946113 1315 85
-0.8427515 -1.6164758 0.38652387 1401 86
-0.83981544 -1.606503 0.35343307 1315 87
-0.84102446 -1.6049567 0.32133514 1163 88
-0.84108979 -1.6011182 0.28922713 1416 89
-0.83911467 -1.5931991 0.25717637 1510 90
-0.83999819 -1.5910492 0.22546881 1416 91
-0.83928955 -1.585722 0.19386157 1602 92
-0.84011775 -1.5834817 0.16231982 1746 93
-0.84069771 -1.5807503 0.13082877 1879 94
-0.83743858 -1.5703984 0.099906519 2227 95
-0.83078259 -1.5533546 0.069898844 2710 96
-0.8346585 -1.5571921 0.038131639 2756 97
-0.83289862 -1.549883 0.0075282305 2993 98
-0.83538628 -1.5509437 -0.024202913 3196 99
-0.82191265 -1.520662 -0.050812602 3303 100
-0.83513016 -1.5427432 -0.086384922 2624 101
-0.83104819 -1.5309144 -0.11591852 2361 102
-0.8383621 -1.5413095 -0.15035415 1973 103
-2.0051675 -3.80428 -0.75320125 1437 104
-0.73173219 -1.3130902 -0.26848361 712 109
-0.72653037 -1.2996409 -0.29298007 746 110
-0.72594541 -1.2950276 -0.32081729 811 111
-0.80515707 -1.4343148 -0.47774035 29 114
-0.50474316 -0.8449294 -0.37708837 1338 122
-0.49847752 -0.83062345 -0.39127481 1552 123
-0.47235525 -0.77449352 -0.42199892 37 126
-0.62830538 -1.0555131 -0.67598879 33 127
-0.040184963 0.029104931 0.080982193 266 177
-0.038472507 0.031445879 0.089796372 1667 178
-0.037572302 0.033386014 0.08869043 237 179
-0.036534328 0.035350773 0.089617759 4752 180
-0.035509624 0.037284158 0.090583913 173 181
0.44752413 1.0350058 -0.15244016 1858 253
1.1820278 2.4927826 -0.04180181 14 266
1.1809031 2.4845092 0.0068930686 583 267
1.1811469 2.4790502 0.055000752 535 268
1.1774472 2.4656792 0.10320615 582 269
1.2904645 2.6869605 0.14470243 614 270
0.83723003 1.7718283 0.20256132 1242 271
0.660896 1.4149485 0.23187643 1081 272
0.93427759 1.9571378 0.27624246 1178 273
0.99065465 2.0647469 0.31937921 790 274
1.0311345 2.1402578 0.36454126 669 275
1.3970381 2.8532724 0.52641392 684 277
1.4011482 2.854579 0.58244807 654 278
1.3944899 2.8346663 0.63562441 710 279
1.3954844 2.8298261 0.69089198 645 280
1.3946967 2.8214784 0.74565017 677 281
0.83745569 1.726697 0.57127708 1421 282
0.89388573 1.8324414 0.63035393 279 283
0.87303448 1.7874871 0.65609694 121 284
0.87560207 1.7881017 0.69273186 2085 285
1.3846877 2.7678254 1.0174468 251 286
1.3914927 2.7740459 1.0774016 705 287
1.3889635 2.7622073 1.1321771 645 288
1.3952425 2.7672465 1.1931642 257 289
1.178907 2.3462236 1.0931159 5 290
1.0368285 2.0690262 1.0329895 17 291
0.94475317 1.8883882 1.0020976 34 292
0.83669686 1.6783053 0.95041245 1070 293
0.91175276 1.8159335 1.0534124 662 294
0.93595821 1.8567353 1.115612 1167 295
0.88363618 1.753157 1.1055813 901 296
0.91380328 1.7998542 1.2167044 46 298
1.3806119 2.658186 1.8382516 583 300
1.3826593 2.6540737 1.9046942 606 301
1.377131 2.6358056 1.9628774 574 302
1.3808362 2.6344984 2.0334921 540 303
1.3790315 2.6228852 2.098186 585 304
1.373032 2.6034639 2.1580603 556 305
1.3791444 2.606077 2.2359734 513 306
1.371937 2.5842144 2.2960243 523 307
1.3703843 2.5725231 2.3654304 504 308
1.3428246 2.5136783 2.3948221 335 309
1.2912092 2.4116971 2.3833237 323 310
1.2396306 2.3102763 2.3678875 344 311
1.1877682 2.208854 2.3478642 350 312
1.1356872 2.1075652 2.3232203 397 313
1.0946723 2.026428 2.3148956 411 314
1.0500644 1.9393405 2.2964787 464 315
1.0101558 1.8609661 2.2837296 447 316
0.97549576 1.7921699 2.2785611 492 317
0.92740858 1.700317 2.2423081 588 318
0.8921687 1.6312838 2.2296576 600 319
0.86027944 1.5683846 2.2216845 636 320
0.82508492 1.5001254 2.2035084 691 321
0.79738832 1.4450405 2.2002687 679 322
0.76832151 1.387884 2.191581 773 323
0.7410869 1.3341076 2.1852434 776 324
0.7140944 1.2810001 2.1774173 793 325
0.68974912 1.2325716 2.1746411 890 326
0.66499776 1.1836922 2.1689334 865 327
0.64017671 1.1349373 2.161088 952 328
0.61615986 1.0877457 2.1536279 966 329
0.58688551 1.0322839 2.1278701 1033 330
0.56534874 0.98964214 2.1237969 999 331
0.54162616 0.94372267 2.110816 1115 332
0.52177817 0.90419394 2.1089272 1167 333
0.49981812 0.8615393 2.0980997 1229 334
0.48175123 0.82515901 2.0996065 1188 335
0.46163109 0.78577286 2.0921552 1282 336
0.44308308 0.7489801 2.0892019 1233 337
0.42288268 0.70988989 2.0780563 1221 338
0.40508083 0.67458111 2.0751913 1337 339
0.38739443 0.6396032 2.0715208 1331 340
0.36942813 0.60439414 2.0651836 1373 341
0.35006464 0.56741744 2.0505037 1418 342
0.33341801 0.5344696 2.0472617 1456 343
0.31705508 0.50206155 2.0442495 1496 344
0.30148003 0.47084501 2.0443673 1434 345
0.28545168 0.43915853 2.0409405 1509 346
0.2684077 0.40635812 2.0300665 1593 347
0.25368226 0.37661079 2.0320673 1539 348
0.23780961 0.34560433 2.0256634 1611 349
0.22397132 0.31706011 2.0323086 595 350
0.20632182 0.28447077 2.0099154 1634 351
0.19121857 0.25488001 2.0045276 1701 352
0.17700993 0.22630167 2.0054469 1598 353
0.16163261 0.19679873 1.994908 1786 354
0.14681949 0.16801064 1.9877291 1804 355
0.1325749 0.13981901 1.9849383 1792 356
0.1184563 0.11182578 1.9825842 1752 357
0.10414381 0.083882049 1.9766879 1784 358
0.089982048 0.056185294 1.9712363 1780 359
0.683752 -0.31971267 0.28957045 135 11
0.66705239 -0.31494349 0.2974565 240 12
0.65122855 -0.31043437 0.30505002 238 13
0.66328174 -0.31537461 0.3176477 233 14
0.68997127 -0.32534766 0.33374608 230 15
0.68766075 -0.32545447 0.34419674 235 16
0.67138213 -0.32075661 0.35128698 238 17
0.6688472 -0.3207688 0.3614713 238 18
0.66617817 -0.32073468 0.37162122 237 19
0.67704695 -0.32540971 0.38566923 233 20
0.67405313 -0.32528055 0.39594477 218 21
5.1449294 -1.8930566 1.8369514 210 22
4.8410168 -1.7930146 1.8187134 211 23
4.6363897 -1.7272842 1.8263173 211 24
4.4317899 -1.6610748 1.8279639 212 25
3.3572109 -1.3137476 1.8416471 218 32
3.3201382 -1.3052316 1.8844442 215 33
3.180341 -1.2638576 1.9327569 212 35
3.0910609 -1.2357782 1.9433905 212 36
2.9898612 -1.2030596 1.9445723 212 37
2.7256122 -1.1136662 1.8993165 215 39
2.6270852 -1.0811028 1.8918142 220 40
2.5531979 -1.0576191 1.8976169 223 41
2.4679282 -1.0296328 1.8935114 222 42
2.3841159 -1.0019885 1.8878092 223 43
2.3241568 -0.98328918 1.8968836 225 44
2.2530138 -0.96014273 1.8959389 225 45
2.1937466 -0.94142419 1.9020405 224 46
2.1235898 -0.91832799 1.897806 224 47
2.0532923 -0.89499658 1.8912561 224 48
1.9960711 -0.87662625 1.8935082 227 49
1.9493549 -0.86227506 1.9032418 226 50
1.8813902 -0.83937734 1.8927522 226 51
1.8247181 -0.82080591 1.8903747 225 52
1.779662 -0.8067596 1.8972579 228 53
1.7245102 -0.78853488 1.893096 227 54
1.6793522 -0.77422816 1.8972032 227 55
1.6351274 -0.76020068 1.901024 227 56
1.5911655 -0.74618036 1.9038936 226 57
1.5370923 -0.72787201 1.8944393 227 58
1.4938612 -0.71392232 1.8952776 228 59
1.4509435 -0.69999856 1.8951912 229 60
1.4083555 -0.68610674 1.8941895 229 61
1.3752589 -0.6761387 1.9035169 229 62
1.3332237 -0.66228956 1.9008477 228 63
1.2915628 -0.64848888 1.8972884 227 64
1.2323495 -0.62695456 1.8687987 230 65
1.2094249 -0.62105602 1.8875403 231 66
1.1689776 -0.60743517 1.881372 228 67
1.1371658 -0.59752935 1.8863734 231 68
1.1060117 -0.58785462 1.8915913 233 69
1.0744423 -0.57793128 1.8954194 230 70
1.0353057 -0.5644924 1.8862829 231 71
1.0041944 -0.55461276 1.8888305 234 72
0.97373521 -0.54496652 1.8916454 229 73
0.95062292 -0.53869891 1.9066252 233 74
0.92732215 -0.53234303 1.921272 235 75
0.89652562 -0.52239913 1.9217888 234 76
0.8663677 -0.51268768 1.9226158 235 77
0.83595467 -0.5027777 1.9220276 234 78
0.80575204 -0.49289101 1.9208915 234 79
0.77617824 -0.48323655 1.9201018 236 80
0.74640989 -0.47340286 1.9178931 236 81
0.71726286 -0.46380091 1.9160547 237 82
0.69394112 -0.45715994 1.9273041 235 83
0.66469604 -0.44737488 1.9236184 237 84
0.63605845 -0.4378199 1.9203358 237 85
0.60732549 -0.42811751 1.915632 236 86
0.58405846 -0.42136312 1.9252797 237 87
0.55568093 -0.41170073 1.9196578 236 88
0.52789056 -0.40226543 1.9144828 237 89
0.50008315 -0.39270848 1.9078898 235 90
0.47696677 -0.38587475 1.9159731 238 91
0.44982919 -0.37654084 1.9094515 237 92
0.42671463 -0.36964774 1.916803 236 93
0.39973536 -0.36021692 1.9084713 234 94
0.37330741 -0.35100651 1.9006485 234 95
0.35034385 -0.34407091 1.906883 235 96
0.32730782 -0.33708453 1.9127845 232 97
0.3012518 -0.32781649 1.9027859 234 98
0.27829203 -0.32079619 1.907971 236 99
0.25527376 -0.31372958 1.9128232 236 100
0.23220134 -0.30661809 1.9173412 237 101
0.20696196 -0.29748762 1.9057885 236 102
0.18400452 -0.29035556 1.9096007 235 103
0.16100669 -0.28318316 1.9130797 236 104
0.13657901 -0.27430403 1.9013826 236 105
0.11490785 -0.26872265 1.9190342 234 106
0.090817146 -0.25989419 1.9066219 235 107
0.067900501 -0.25263685 1.9087422 238 108
0.04496596 -0.24534638 1.9105295 239 109
0.022017943 -0.2380242 1.9119829 234 110
-0.00093911216 -0.23067173 1.9131024 238 111
-0.023900768 -0.22329041 1.9138876 235 112
-0.046862587 -0.21588166 1.9143387 236 113
-0.069820128 -0.20844689 1.9144553 237 114
-0.092768967 -0.20098755 1.9142375 237 115
-0.11570466 -0.19350511 1.9136852 237 116
-0.13862279 -0.18600096 1.9127988 238 117
-0.1615189 -0.17847657 1.9115782 237 118
-0.18438859 -0.17093343 1.9100236 235 119
-0.20880415 -0.16408211 1.9230356 236 120
-0.23180477 -0.15644033 1.9207953 234 121
-0.25476536 -0.148784 1.918219 236 122
-0.27768153 -0.14111465 1.9153078 238 123
-0.30306894 -0.13391012 1.9278549 237 124
-0.32609141 -0.12614885 1.9242421 238 125
-0.34905562 -0.11837893 1.9202933 238 126
-0.37195721 -0.11060183 1.9160088 238 127
-0.39479166 -0.10281907 1.9113897 237 128
-0.42111146 -0.095156506 1.9220358 237 129
-0.44400394 -0.087296411 1.916702 237 130
-0.47053447 -0.079419464 1.925565 236 131
-0.49345168 -0.071492434 1.919512 237 132
-0.52065235 -0.063409492 1.9285134 239 133
-0.54358637 -0.055417284 1.9217311 238 134
-0.54312891 -0.048886389 1.8401856 234 135
-0.54559028 -0.04267928 1.7741482 233 136
-0.54607749 -0.037052326 1.7073783 235 137
-0.54523277 -0.031955495 1.6418078 232 138
-0.54275292 -0.027412184 1.5765216 232 139
-0.54405618 -0.022813134 1.5255324 235 140
-0.55007386 -0.017916694 1.4895757 236 141
-0.5429166 -0.014882095 1.4241921 237 142
-0.54684001 -0.010690875 1.3885543 236 143
-0.54378206 -0.0076532215 1.3393621 235 144
-0.5454179 -0.0041554719 1.3031347 238 145
-0.54662657 -0.00088265538 1.2679623 240 146
-0.54700416 0.0021074265 1.2329519 237 147
-0.54655576 0.0048149526 1.198121 240 148
-0.54528672 0.0072402954 1.1634865 239 149
-0.55039042 0.010641068 1.1421717 236 150
-0.5476687 0.012567185 1.1078811 240 151
-0.5441432 0.014212549 1.0738362 240 152
-0.54751593 0.017025307 1.052848 238 153
-0.54256958 0.01817444 1.0192362 239 154
-0.54540014 0.020722769 0.9993301 239 155
-0.54725611 0.023017555 0.97866094 243 156
-0.54922116 0.025272816 0.95890617 239 157
-0.55019569 0.027266704 0.93842131 241 158
-0.55072898 0.029108509 0.91804612 239 159
-0.5514127 0.030924007 0.89858806 239 160
-0.55108416 0.032466888 0.87845045 238 161
-0.55093402 0.03399244 0.85923058 240 162
-0.54047137 0.033176884 0.82776737 237 163
-0.54878837 0.03647583 0.82041717 240 164
-0.54678082 0.037426926 0.80085778 239 165
-0.54435873 0.038229659 0.78146857 238 166
-0.54218489 0.039037891 0.76299495 239 167
-0.54964161 0.042061254 0.75560337 238 168
-0.54616231 0.042488545 0.73661232 240 169
-0.54297125 0.042934865 0.71853048 240 170
-0.54983747 0.045768619 0.71111619 237 171
-0.54533118 0.045825467 0.69258243 238 172
-0.55185205 0.048550591 0.6851272 240 173
-0.54744172 0.048560113 0.66755062 238 174
-0.54194146 0.048252523 0.64953119 236 175
-0.54789251 0.050789699 0.64211446 240 176
-0.54178774 0.050259545 0.62441915 239 177
-0.54740548 0.052689016 0.61699831 241 178
-0.54147345 0.052136138 0.60026419 236 179
-0.54677087 0.054461837 0.5928418 237 180
-0.53950733 0.053498432 0.57584816 241 181
-0.54448152 0.055717513 0.56844819 238 182
-0.53745049 0.054751039 0.55241257 236 183
-0.52930069 0.053445518 0.53608721 237 184
-0.53375179 0.055483609 0.52882588 236 185
-0.53810453 0.057495281 0.52149785 236 186
-0.54235804 0.059480116 0.51410455 240 187
-0.53408867 0.058039263 0.49895829 237 188
-0.53804493 0.059923366 0.4916178 238 189
-0.532107 0.059839368 0.46913552 239 191
-0.53566831 0.061593696 0.46181631 237 192
-0.53913093 0.063320383 0.4544434 238 193
-0.52866459 0.061110824 0.43998474 237 194
-0.53184056 0.06273666 0.43270826 236 195
-0.53491861 0.06433472 0.42538369 236 196
-0.52469534 0.062117204 0.41198397 238 197
-0.52750146 0.063618973 0.40475824 239 198
-0.53021055 0.065092757 0.39748982 237 199
-0.53282183 0.066538244 0.39018008 238 200
-0.52095234 0.063750818 0.37722129 237 201
-0.52329892 0.06509982 0.37004128 240 202
-0.52554905 0.06642051 0.36282527 237 203
-0.52770245 0.067712665 0.35557467 236 204
-0.52975863 0.068976015 0.34829086 238 205
-0.5317173 0.070210323 0.34097522 236 206
-0.53357792 0.07141538 0.33362919 237 207
-0.53534031 0.072590932 0.32625425 236 208
-0.53700405 0.073736727 0.31885171 237 209
-0.52460623 0.070609301 0.30795246 238 210
-0.52603185 0.071665481 0.30070168 238 211
-0.52736056 0.072692081 0.29342827 237 212
-0.52859217 0.073688939 0.28613368 238 213
-0.52972645 0.074655846 0.27881929 237 214
-0.53076309 0.075592622 0.27148652 237 215
-0.53170204 0.07649909 0.26413679 238 216
-0.532543 0.077375039 0.2567715 238 217
-0.51813394 0.073467433 0.24743497 239 218
-0.53393036 0.07903482 0.24200004 238 219
-0.53447658 0.079818308 0.2345967 239 220
-0.53527325 0.08129175 0.21976194 238 222
-0.53552377 0.081981435 0.21233338 238 223
-0.53567553 0.08263953 0.20489931 238 224
-0.52050394 0.078362763 0.19705126 239 225
-0.52045959 0.078939676 0.18983212 237 226
-0.47371128 0.064363837 0.18271458 236 227
-0.45638433 0.059257582 0.17646073 237 228
-0.45609537 0.059679076 0.17017053 239 229
-0.45572308 0.060073361 0.16388293 237 230
-0.45526746 0.060440317 0.15759917 236 231
-0.45472866 0.060779884 0.15132044 235 232
-0.45410681 0.061092004 0.14504799 235 233
-0.45245785 0.061062351 0.13888194 229 234
-0.45072946 0.061003968 0.13275214 231 235
-0.44798192 0.060601711 0.1267862 238 236
-0.44234541 0.059222773 0.1213069 233 237
-0.43290555 0.05654791 0.11659258 239 238
-0.41502646 0.050991684 0.11364613 233 239
-0.40740517 0.048883632 0.10921127 232 240
-0.40717378 0.04928273 0.10342272 234 241
-0.40686271 0.049656942 0.097622499 236 242
-0.40739366 0.050323233 0.091589853 233 243
-0.41059363 0.05191581 0.084814601 227 244
-0.41734511 0.054751039 0.076928206 219 245
-0.41939837 0.05597347 0.070132345 216 246
-0.42497516 0.058435738 0.062148921 217 247
-0.42499012 0.058968022 0.055709481 228 248
-0.42670965 0.060104862 0.048637375 232 249
-0.43100134 0.062159777 0.040539682 228 250
-0.44138324 0.066390648 0.029986411 218 251
-0.45066842 0.070265502 0.019437969 227 252
-0.45798421 0.073468819 0.0092917383 235 253
-0.45722693 0.073804036 0.0022010207 234 254
-0.45810574 0.074733421 -0.0056666732 233 255
-0.46231699 0.076877579 -0.015172452 232 256
-0.45948219 0.07648465 -0.021597654 233 257
-0.45656338 0.076061204 -0.027983218 229 258
-0.45356116 0.075607359 -0.034327865 227 259
-0.45047608 0.075123206 -0.040630385 226 260
-0.44730869 0.074608803 -0.046889544 230 261
-0.44405967 0.074064299 -0.053104177 228 262
-0.44072965 0.07348977 -0.059273005 225 263
-0.43731922 0.072885305 -0.065394923 223 264
-0.43382907 0.072251067 -0.071468726 218 265
-0.44228095 0.076119393 -0.085236207 215 266
-0.030410517 -0.076826334 0.15150274 212 325
-0.029980633 -0.076958306 0.15141213 211 326
-0.02954974 -0.07709112 0.15132774 211 327
-0.021624427 -0.079543598 0.14989427 216 345
-0.021177122 -0.079691678 0.14993124 216 346
-0.020612258 -0.079797149 0.14898269 215 347
-0.020021949 -0.079911642 0.1480436 216 348
-0.020035097 -0.080901109 0.1601759 221 353
0.78806883 -0.26827735 -0.75137407 227 392
0.77970749 -0.26838797 -0.71692199 232 393
0.77059859 -0.26822305 -0.68287456 232 394
0.77090919 -0.2701959 -0.66001791 234 395
0.77145511 -0.27217519 -0.63801432 235 396
0.74931705 -0.26861885 -0.59379077 233 397
0.73745191 -0.26742738 -0.56136394 234 398
0.735587 -0.26860595 -0.53959221 238 399
0.72246593 -0.26694044 -0.50798118 236 400
0.71962363 -0.26775834 -0.48674339 233 401
0.70528269 -0.26562646 -0.45599699 234 402
0.66712207 -0.25734437 -0.40603757 232 403
0.66255492 -0.25749737 -0.38608897 234 404
0.6583609 -0.25770169 -0.36699069 236 405
0.65977383 -0.26055336 -0.33776897 235 407
0.66638851 -0.26350427 -0.32792854 237 408
0.67286974 -0.26642001 -0.31798917 236 409
0.67921609 -0.26929998 -0.30795288 235 410
0.69835341 -0.27561742 -0.30658656 236 411
0.7167598 -0.28177992 -0.30421877 233 412
0.72290385 -0.28464693 -0.29353958 233 413
0.69080657 -0.27705252 -0.25918823 222 414
0.61790985 -0.25811428 -0.20181255 235 415
0.61012548 -0.25694931 -0.1852179 233 416
0.61473787 -0.25919485 -0.17606206 233 417
0.60557956 -0.25758925 -0.15940802 234 418
0.62359113 -0.26358247 -0.15754355 235 419
0.63194317 -0.26782918 -0.13876136 235 421
0.63592935 -0.26989865 -0.12927587 233 422
0.62570488 -0.26789182 -0.11329953 234 423
0.62935585 -0.26984572 -0.10389848 237 424
0.61953199 -0.26789719 -0.088796064 234 425
0.62286049 -0.26973969 -0.079478726 235 426
0.63954771 -0.27548736 -0.075369164 236 427
0.64268917 -0.27729332 -0.065756828 237 428
0.64570159 -0.27906144 -0.056096271 236 429
0.64858449 -0.28079134 -0.046389401 235 430
0.65133727 -0.28248268 -0.036638036 237 431
0.66865408 -0.28852671 -0.031402677 237 432
0.68502587 -0.29432476 -0.025429174 235 433
0.68748415 -0.29596454 -0.015141591 235 434
0.68980491 -0.29756287 -0.0048156083 234 435
0.69198757 -0.29911938 0.0055468082 235 436
0.69403172 -0.30063382 0.015943646 235 437
0.69593698 -0.30210584 0.02637291 236 438
0.69770294 -0.30353525 0.036832571 235 439
0.69932932 -0.30492169 0.047320604 234 440
0.70081586 -0.30626491 0.057834998 233 441
0.71726692 -0.31226629 0.065977231 230 442
0.73268193 -0.31798068 0.07471671 229 443
0.74894172 -0.32399446 0.083766796 224 444
0.77931637 -0.33448935 0.091647938 221 445
7.0326228 -2.3120403 -0.52091742 214 446
7.0388207 -2.3224571 -0.41827869 213 447
7.2509055 -2.3984461 -0.33016139 135 448
7.9659419 -2.6357121 -0.26417178 64 449
11.18324 -3.6775701 -0.28123486 168 450
11.258624 -3.7152152 -0.12006409 206 451
0.07613185 0.028686503 1.9692323 1819 0
0.062244233 0.0013025664 1.9656928 1841 1
0.048302617 -0.025876645 1.9596223 1849 2
0.034649733 -0.053152289 1.9590107 1803 3
0.020662609 -0.079675496 1.9468963 1881 4
0.0071443878 -0.10704409 1.9492186 1887 5
-0.0065122955 -0.13400848 1.9460278 1836 6
-0.020165298 -0.16077778 1.9413185 1858 7
-0.033789631 -0.18742548 1.9360901 1813 8
-0.047360022 -0.21365657 1.9283663 1906 9
-0.061009381 -0.24095991 1.9280356 1816 10
-0.074527994 -0.26708242 1.9202719 1903 11
-0.088326454 -0.29491651 1.9218186 1777 12
-0.10209066 -0.32224944 1.9198664 1882 13
-0.11544798 -0.34761557 1.9085984 2053 14
-0.12933318 -0.37529963 1.9075258 1834 15
-0.14328116 -0.40303957 1.9058878 1771 16
-0.15699552 -0.42976576 1.8998361 1846 17
-0.1710247 -0.45752993 1.8970783 1848 18
-0.18519162 -0.48561695 1.8946998 1858 19
-0.19941859 -0.51375192 1.8917352 1725 20
-0.21318229 -0.54030454 1.8834802 1743 21
-0.22736578 -0.56809455 1.8784307 1783 22
-0.24158008 -0.59587443 1.8728005 1787 23
-0.25645268 -0.62547082 1.8711952 1775 24
-0.27061775 -0.65289062 1.8634499 1751 25
-0.28534982 -0.68182439 1.8587626 1729 26
-0.30013785 -0.71079201 1.8534433 1636 27
-0.31544518 -0.74105263 1.8501663 1624 28
-0.33051461 -0.77053308 1.8444345 1640 29
-0.34751761 -0.80499738 1.847683 1636 30
-0.36294749 -0.83513248 1.8414055 1544 31
-0.37880456 -0.86625105 1.8361609 1578 32
-0.39474082 -0.89743865 1.8301913 1571 33
-0.40995225 -0.92666823 1.8201288 1493 34
-0.42641267 -0.95893514 1.8143952 1513 35
-0.44296107 -0.99128217 1.8078845 1492 36
-0.4593702 -1.0231531 1.7997797 1352 37
-0.47629368 -1.0561576 1.7925097 1345 38
-0.49329743 -1.0892226 1.7844262 1359 39
-0.51109546 -1.1240666 1.7778634 1327 40
-0.52825731 -1.1572406 1.7681041 1291 41
-0.55181473 -1.2054665 1.7764546 1160 42
-0.57132459 -1.2438415 1.770715 1179 43
-0.59044367 -1.2811249 1.7624767 1167 44
-0.61239552 -1.3248541 1.7604721 1127 45
-0.63484746 -1.3695194 1.757937 1039 46
-0.65638119 -1.4118418 1.7513312 1098 47
-0.67807555 -1.454339 1.7435349 990 48
-0.72129154 -1.5457901 1.7829672 330 49
-0.8130073 -1.7468247 1.9228851 401 50
-0.77392298 -1.6503189 1.7756122 503 51
-0.77062064 -1.6354825 1.7091156 872 52
-0.79493558 -1.6829127 1.6987561 810 53
-0.82818109 -1.7500817 1.7033432 728 54
-0.85656679 -1.8060756 1.69629 711 55
-0.88552493 -1.8630724 1.6880718 693 56
-0.91471219 -1.9203075 1.6780688 687 57
-0.94099623 -1.9708935 1.6613271 658 58
-0.97299737 -2.0337982 1.6515871 592 59
-1.0070186 -2.1008205 1.6424166 586 60
-1.0409467 -2.1673226 1.6305505 572 61
-1.0740144 -2.2316508 1.6150404 516 62
-1.1098539 -2.3016827 1.600752 466 63
-1.1492834 -2.3791301 1.5882679 440 64
-1.1870973 -2.4527428 1.5709517 379 65
-0.84568179 -1.7139003 1.1270888 983 66
-0.84622574 -1.7097474 1.0846827 1037 67
-0.84713376 -1.7064716 1.0434697 964 68
-0.84803951 -1.7032818 1.0029919 1034 69
-0.84736639 -1.6968364 0.9617635 1030 70
-0.84789747 -1.6930312 0.92237794 1090 71
-0.84886962 -1.6902335 0.88399392 1067 72
-0.84622318 -1.6799114 0.8433845 1144 73
-0.84770489 -1.6783346 0.80661952 1087 74
-0.84761769 -1.6735374 0.76923019 1109 75
-0.8471905 -1.6681004 0.73217344 1198 76
-0.84852958 -1.6663976 0.69670045 1147 77
-0.84533221 -1.6553452 0.65911269 1244 78
-0.84348351 -1.6471676 0.62292194 1252 79
-0.84301919 -1.6419123 0.58793741 1220 80
-0.84440237 -1.6405058 0.55414617 1244 81
-0.84507304 -1.6376687 0.52032912 1267 82
-0.84285295 -1.6289552 0.48582399 1252 83
-0.84469587 -1.6285888 0.45299631 1265 84
-0.84320647 -1.6214591 0.41946113 1315 85
-0.8427515 -1.6164758 0.38652387 1401 86
-0.83981544 -1.606503 0.35343307 1315 87
-0.84102446 -1.6049567 0.32133514 1163 88
-0.84108979 -1.6011182 0.28922713 1416 89
-0.83911467 -1.5931991 0.25717637 1510 90
-0.83999819 -1.5910492 0.22546881 1416 91
-0.83928955 -1.585722 0.19386157 1602 92
-0.84011775 -1.5834817 0.16231982 1746 93
-0.84069771 -1.5807503 0.13082877 1879 94
-0.83743858 -1.5703984 0.099906519 2227 95
-0.83078259 -1.5533546 0.069898844 2710 96
-0.8346585 -1.5571921 0.038131639 2756 97
-0.83289862 -1.549883 0.0075282305 2993 98
-0.83538628 -1.5509437 -0.024202913 3196 99
-0.82191265 -1.520662 -0.050812602 3303 100
-0.83513016 -1.5427432 -0.086384922 2624 101
-0.83104819 -1.5309144 -0.11591852 2361 102
-0.8383621 -1.5413095 -0.15035415 1973 103
-2.0051675 -3.80428 -0.75320125 1437 104
-0.73173219 -1.3130902 -0.26848361 712 109
-0.72653037 -1.2996409 -0.29298007 746 110
-0.72594541 -1.2950276 -0.32081729 811 111
-0.80515707 -1.4343148 -0.47774035 29 114
-0.50474316 -0.8449294 -0.37708837 1338 122
-0.49847752 -0.83062345 -0.39127481 1552 123
-0.47235525 -0.77449352 -0.42199892 37 126
-0.62830538 -1.0555131 -0.67598879 33 127
-0.040184963 0.029104931 0.080982193 266 177
-0.038472507 0.031445879 0.089796372 1667 178
-0.037572302 0.033386014 0.08869043 237 179
-0.036534328 0.035350773 0.089617759 4752 180
-0.035509624 0.037284158 0.090583913 173 181
0.44752413 1.0350058 -0.15244016 1858 253
1.1820278 2.4927826 -0.04180181 14 266
1.1809031 2.4845092 0.0068930686 583 267
1.1811469 2.4790502 0.055000752 535 268
1.1774472 2.4656792 0.10320615 582 269
1.2904645 2.6869605 0.14470243 614 270
0.83723003 1.7718283 0.20256132 1242 271
0.660896 1.4149485 0.23187643 1081 272
0.93427759 1.9571378 0.27624246 1178 273
0.99065465 2.0647469 0.31937921 790 274
1.0311345 2.1402578 0.36454126 669 275
1.3970381 2.8532724 0.52641392 684 277
1.4011482 2.854579 0.58244807 654 278
1.3944899 2.8346663 0.63562441 710 279
1.3954844 2.8298261 0.69089198 645 280
1.3946967 2.8214784 0.74565017 677 281
0.83745569 1.726697 0.57127708 1421 282
0.89388573 1.8324414 0.63035393 279 283
0.87303448 1.7874871 0.65609694 121 284
0.87560207 1.7881017 0.69273186 2085 285
1.3846877 2.7678254 1.0174468 251 286
1.3914927 2.7740459 1.0774016 705 287
1.3889635 2.7622073 1.1321771 645 288
1.3952425 2.7672465 1.1931642 257 289
1.178907 2.3462236 1.0931159 5 290
1.0368285 2.0690262 1.0329895 17 291
0.94475317 1.8883882 1.0020976 34 292
0.83669686 1.6783053 0.95041245 1070 293
0.91175276 1.8159335 1.0534124 662 294
0.93595821 1.8567353 1.115612 1167 295
0.88363618 1.753157 1.1055813 901 296
0.91380328 1.7998542 1.2167044 46 298
1.3806119 2.658186 1.8382516 583 300
1.3826593 2.6540737 1.9046942 606 301
1.377131 2.6358056 1.9628774 574 302
1.3808362 2.6344984 2.0334921 540 303
1.3790315 2.6228852 2.098186 585 304
1.373032 2.6034639 2.1580603 556 305
1.3791444 2.606077 2.2359734 513 306
1.371937 2.5842144 2.2960243 523 307
1.3703843 2.5725231 2.3654304 504 308
1.3428246 2.5136783 2.3948221 335 309
1.2912092 2.4116971 2.3833237 323 310
1.2396306 2.3102763 2.3678875 344 311
1.1877682 2.208854 2.3478642 350 312
1.1356872 2.1075652 2.3232203 397 313
1.0946723 2.026428 2.3148956 411 314
1.0500644 1.9393405 2.2964787 464 315
1.0101558 1.8609661 2.2837296 447 316
0.97549576 1.7921699 2.2785611 492 317
0.92740858 1.700317 2.2423081 588 318
0.8921687 1.6312838 2.2296576 600 319
0.86027944 1.5683846 2.2216845 636 320
0.82508492 1.5001254 2.2035084 691 321
0.79738832 1.4450405 2.2002687 679 322
0.76832151 1.387884 2.191581 773 323
0.7410869 1.3341076 2.1852434 776 324
0.7140944 1.2810001 2.1774173 793 325
0.68974912 1.2325716 2.1746411 890 326
0.66499776 1.1836922 2.1689334 865 327
0.64017671 1.1349373 2.161088 952 328
0.61615986 1.0877457 2.1536279 966 329
0.58688551 1.0322839 2.1278701 1033 330
0.56534874 0.98964214 2.1237969 999 331
0.54162616 0.94372267 2.110816 1115 332
0.52177817 0.90419394 2.1089272 1167 333
0.49981812 0.8615393 2.0980997 1229 334
0.48175123 0.82515901 2.0996065 1188 335
0.46163109 0.78577286 2.0921552 1282 336
0.44308308 0.7489801 2.0892019 1233 337
0.42288268 0.70988989 2.0780563 1221 338
0.40508083 0.67458111 2.0751913 1337 339
0.38739443 0.6396032 2.0715208 1331 340
0.36942813 0.60439414 2.0651836 1373 341
0.35006464 0.56741744 2.0505037 1418 342
0.33341801 0.5344696 2.0472617 1456 343
0.31705508 0.50206155 2.0442495 1496 344
0.30148003 0.47084501 2.0443673 1434 345
0.28545168 0.43915853 2.0409405 1509 346
0.2684077 0.40635812 2.0300665 1593 347
0.25368226 0.37661079 2.0320673 1539 348
0.23780961 0.34560433 2.0256634 1611 349
0.22397132 0.31706011 2.0323086 595 350
0.20632182 0.28447077 2.0099154 1634 351
0.19121857 0.25488001 2.0045276 1701 352
0.17700993 0.22630167 2.0054469 1598 353
0.16163261 0.19679873 1.994908 1786 354
0.14681949 0.16801064 1.9877291 1804 355
0.1325749 0.13981901 1.9849383 1792 356
0.1184563 0.11182578 1.9825842 1752 357
0.10414381 0.083882049 1.9766879 1784 358
0.089982048 0.056185294 1.9712363 1780 359
11.206166 -3.9263434 0.20168497 177 0
0.67869502 -0.32946715 0.27851897 217 9
0.66312808 -0.32480201 0.28676009 239 10
0.66146177 -0.32504401 0.29686192 240 11
0.65966338 -0.32523912 0.30694214 239 12
0.64291471 -0.32008407 0.31412029 237 13
0.64089805 -0.32018307 0.32393453 238 14
0.63875324 -0.32023609 0.33372194 239 15
0.65115732 -0.32554978 0.34700805 238 16
0.64870477 -0.32550997 0.35695118 238 17
0.64612263 -0.32542312 0.36686116 238 18
0.6434114 -0.32528928 0.3767361 239 19
0.64057171 -0.32510853 0.38657409 238 20
0.637604 -0.32488081 0.39637327 237 21
0.6479305 -0.3295621 0.41063708 237 22
0.65889013 -0.33451352 0.42556572 234 23
0.6686902 -0.33907184 0.44054067 220 24
4.4251013 -1.7420495 1.8996772 213 25
3.4579916 -1.4103832 1.8913417 218 31
3.3555071 -1.3762262 1.9027652 220 32
3.2526407 -1.3416902 1.9111007 219 33
3.1635964 -1.3122545 1.9240336 212 34
3.0757418 -1.2830825 1.9351815 214 35
2.987462 -1.2535485 1.9436369 214 36
2.6384673 -1.1305711 1.8997024 221 39
2.5656583 -1.1061953 1.9064591 223 40
2.4681609 -1.0718441 1.8942417 223 41
2.3964112 -1.0475152 1.8970712 222 42
2.3251257 -1.0232037 1.8981439 224 43
2.2657545 -1.0035193 1.9060465 225 44
2.1833231 -0.97437763 1.8944885 226 45
2.136735 -0.95958126 1.9087731 222 46
2.0673802 -0.93540311 1.903285 226 47
1.998643 -0.91130054 1.8961076 226 48
1.9413607 -0.89173967 1.896657 226 49
1.8958896 -0.87693381 1.9060674 224 50
1.8393342 -0.85742122 1.9041233 226 51
1.7832456 -0.83796263 1.9008639 225 52
1.7283322 -0.81885517 1.8969699 227 53
1.6833811 -0.8038196 1.9013097 225 54
1.639356 -0.78907782 1.9053626 227 55
1.5955877 -0.7743476 1.9084671 226 56
1.541721 -0.75517392 1.8992939 225 57
1.4986686 -0.74052578 1.9003711 227 58
1.4559231 -0.7259084 1.9005257 228 59
1.4135005 -0.71132815 1.8997668 229 60
1.371416 -0.69679081 1.8981028 229 61
1.3296852 -0.68230253 1.8955433 228 62
1.288323 -0.66786915 1.8920974 230 63
1.2560222 -0.657399 1.8993714 231 64
1.2238069 -0.6469093 1.9060378 231 65
1.1833242 -0.63258833 1.9002467 230 66
1.1520163 -0.62236643 1.9063826 231 67
1.1122246 -0.60815656 1.8990322 231 68
1.0891682 -0.60163867 1.9161092 231 69
1.0494385 -0.58727074 1.9065292 231 70
1.0187624 -0.57706988 1.9102366 232 71
0.98772645 -0.56663346 1.912546 231 72
0.95733523 -0.55643982 1.9151306 232 73
0.92662394 -0.54602379 1.9163115 231 74
0.90342498 -0.53923976 1.9306859 233 75
0.87334734 -0.52902937 1.9317272 234 76
0.84996998 -0.52212214 1.9453287 234 77
0.81287503 -0.50822872 1.9304366 234 78
0.7895422 -0.50126582 1.9431558 233 79
0.7600553 -0.49109295 1.94215 234 80
0.73038572 -0.48074344 1.9397242 235 81
0.70132929 -0.47063401 1.9376754 235 82
0.67212987 -0.46036145 1.934206 235 83
0.6435352 -0.45032805 1.931137 237 84
0.61483711 -0.44014511 1.9266484 236 85
0.59164417 -0.43299773 1.9364781 236 86
0.56329286 -0.42285958 1.9310707 237 87
0.53552616 -0.41295719 1.9261069 237 88
0.51237649 -0.40573156 1.9347798 234 89
0.48468053 -0.39570674 1.9279921 237 90
0.45755237 -0.38591442 1.9216795 236 91
0.43449634 -0.3786293 1.929214 235 92
0.40751371 -0.36874124 1.9210912 235 93
0.38108039 -0.35908183 1.9134742 233 94
0.35816696 -0.35175568 1.9198912 236 95
0.3319529 -0.34202719 1.9104815 235 96
0.30910116 -0.33466443 1.916181 235 97
0.28618494 -0.32725295 1.9215488 236 98
0.26059875 -0.31764331 1.9109452 234 99
0.23777339 -0.31020594 1.9156041 234 100
0.21489719 -0.30272448 1.9199314 236 101
0.19011037 -0.29337454 1.9091551 236 102
0.16734061 -0.28587344 1.9127854 237 103
0.14453351 -0.27833298 1.9160848 237 104
0.12169345 -0.27075452 1.9190522 236 105
0.07498613 -0.25388795 1.9080982 235 107
0.052282661 -0.24627453 1.9100493 234 108
0.029563868 -0.23862928 1.9116697 237 109
0.0068341363 -0.23095366 1.9129592 237 110
-0.015902204 -0.22324914 1.9139174 238 111
-0.038640782 -0.21551722 1.9145445 237 112
-0.061377257 -0.20775935 1.9148399 237 113
-0.084107272 -0.19997706 1.9148039 236 114
-0.10682646 -0.19217178 1.9144362 237 115
-0.12953049 -0.18434507 1.9137372 238 116
-0.152215 -0.17649838 1.912707 235 117
-0.17487563 -0.16863322 1.9113455 237 118
-0.19750808 -0.16075113 1.9096531 237 119
-0.22010797 -0.15285358 1.9076302 237 120
-0.244653 -0.14553958 1.9211426 237 121
-0.26738241 -0.13754267 1.9184352 236 122
-0.29006591 -0.12953472 1.9153955 236 123
-0.31269914 -0.12151734 1.9120241 238 124
-0.33791181 -0.11377777 1.9230859 237 125
-0.36062428 -0.10567731 1.9190187 237 126
-0.38327301 -0.097571924 1.9146192 238 127
-0.40585366 -0.089463204 1.9098883 236 128
-0.43199044 -0.081363901 1.9204098 235 129
-0.45462501 -0.073179714 1.9149698 238 130
-0.47717777 -0.064996853 1.9091982 238 131
-0.50388008 -0.056607828 1.9185239 238 132
