# .PCD v0.7 - Point Cloud Data file format
VERSION 0.7
FIELDS x y z intensity index
SIZE 4 4 4 4 4
TYPE F F F F F
COUNT 1 1 1 1 1
WIDTH 1129
HEIGHT 1
VIEWPOINT 0 0 0 1 0 0 0
POINTS 1129
DATA ascii
2.0234547 -0.38453314 -1.1965907 222 270
1.9558034 -0.36548552 -1.1891763 224 271
1.9005905 -0.34934977 -1.188858 225 272
1.8457208 -0.33344972 -1.1872261 225 273
1.8161175 -0.32308638 -1.2036822 216 274
1.0791888 -0.15642235 -0.72642046 212 278
1.0561199 -0.14916366 -0.73130721 212 279
1.0214471 -0.13965976 -0.7249971 211 280
0.98639828 -0.13019896 -0.71719927 214 281
0.9524377 -0.12107015 -0.70927167 158 282
1.4110873 -0.20580456 -1.1907902 116 283
1.3714912 -0.19448462 -1.1881156 223 284
1.332206 -0.18334475 -1.1845765 224 285
1.3033636 -0.17422643 -1.1911042 226 286
1.2646041 -0.16340119 -1.1860042 225 287
1.2360288 -0.15449157 -1.1912651 225 288
1.2081765 -0.14577317 -1.1967244 226 289
1.1702222 -0.13541114 -1.1894155 226 290
1.1420478 -0.12680244 -1.1928937 228 291
1.1139807 -0.1182811 -1.1958284 226 292
1.0769526 -0.10841175 -1.1863687 227 293
1.0498778 -0.10022222 -1.1889033 227 294
1.022334 -0.092031099 -1.190119 227 295
0.99550873 -0.084020458 -1.1916258 226 296
0.95924532 -0.074737452 -1.1786461 225 297
0.92404258 -0.065757789 -1.1657369 218 298
0.89800006 -0.058155872 -1.1655002 218 299
0.8800714 -0.051674671 -1.1774561 226 300
0.8619777 -0.045172237 -1.1891489 224 301
0.84372234 -0.038649775 -1.2005763 219 302
0.81736416 -0.031208955 -1.1978769 227 303
0.32307926 0.02648351 -0.35235393 233 304
0.31583792 0.029026963 -0.35646147 223 305
0.73311836 -0.008945547 -1.1744971 228 306
0.71501964 -0.002658613 -1.1840827 228 307
0.23062859 0.041868873 -0.23883381 237 308
0.22316888 0.043973222 -0.23805529 238 309
0.2141062 0.0461591 -0.23350936 239 310
0.20237875 0.048448164 -0.22238648 239 311
0.19878986 0.050224107 -0.22942781 238 312
0.19088228 0.052213553 -0.22625944 236 313
0.18674989 0.054040883 -0.23225412 236 314
0.17824057 0.055989992 -0.22698247 237 315
0.17263 0.057848278 -0.22907338 235 316
0.16666074 0.059705976 -0.23013851 236 317
0.16068797 0.061555389 -0.23111317 236 318
0.1541051 0.063378014 -0.23009226 238 319
0.14698912 0.065148897 -0.22705263 237 320
0.14276123 0.067050435 -0.23349637 237 321
0.13572353 0.06877774 -0.23025605 238 322
0.13106866 0.070691459 -0.23560372 238 323
0.12364695 0.072310701 -0.23022163 237 324
0.11820393 0.074139297 -0.23250082 237 325
0.11314472 0.076048598 -0.2366555 238 326
0.10859393 0.078104407 -0.2436792 234 327
0.10481209 0.080434456 -0.2555536 239 328
0.10020079 0.082700029 -0.26444262 237 329
0.10234425 0.087343939 -0.31564361 236 330
0.093288377 0.088570029 -0.30179507 234 331
0.043380633 0.072965294 -0.0082822293 230 333
0.040431015 0.073652044 -0.006562978 233 334
0.037336893 0.074172236 -0.0028149337 232 335
0.035344042 0.075592622 -0.010942489 231 336
0.032575872 0.0764184 -0.011089593 220 337
0.046607532 0.10263454 -0.30562657 229 338
0.039906636 0.10461363 -0.30578971 236 339
0.033201527 0.10658403 -0.30585659 233 340
0.026747536 0.1100078 -0.32075351 213 341
0.01307381 0.11243944 -0.30547959 231 343
0.0063647227 0.11437137 -0.3051616 236 344
-0.0003421437 0.11629278 -0.3047474 236 345
-0.0070455167 0.11820327 -0.30423719 235 346
-0.013744099 0.12010247 -0.30363107 235 347
-0.019220693 0.12000416 -0.28709942 236 348
-0.025694048 0.12182029 -0.286327 236 349
-0.032159053 0.12362445 -0.28546208 236 350
-0.038730107 0.12555148 -0.28548884 236 351
-0.045316696 0.12747312 -0.28541917 236 352
-0.052059479 0.12953138 -0.2862322 236 353
-0.059151664 0.13188264 -0.28889719 236 354
-0.067006834 0.13484687 -0.29534554 235 355
-0.073604792 0.13662848 -0.29388329 235 356
-0.080185235 0.13839525 -0.29232711 235 357
-0.089856409 0.14254797 -0.30515361 234 358
-0.096592307 0.14433572 -0.30335861 232 359
-0.10330626 0.14610714 -0.30146784 232 360
-0.057345636 0.11141981 -0.095286161 230 361
-0.059456475 0.11122705 -0.087410182 224 362
-0.12330367 0.1513204 -0.29522461 222 363
-0.13446654 0.1559068 -0.30802071 230 364
-0.13650213 0.15470834 -0.29059067 235 365
-0.14305764 0.15637505 -0.28813353 236 366
-0.15473685 0.16106051 -0.30042282 235 367
-0.16142921 0.16273986 -0.29769909 230 368
-0.1732932 0.16734031 -0.3086375 229 369
-0.18010089 0.1690256 -0.30564338 230 370
-0.18687065 0.17068991 -0.30255312 231 371
-0.19360118 0.17233285 -0.29936719 230 372
-0.20662822 0.17728317 -0.31039566 230 373
-0.21346949 0.17892897 -0.30692238 232 374
-0.22026643 0.18055183 -0.30335259 231 375
-0.22701773 0.1821515 -0.29968706 229 376
-0.2403799 0.18701908 -0.30895877 229 377
-0.2472122 0.18861246 -0.3050018 230 378
-0.25399372 0.19018105 -0.3009488 227 379
-0.26072311 0.19172457 -0.29680037 227 380
-0.27524355 0.19692472 -0.30600774 228 381
-0.28879294 0.19996518 -0.29700068 228 383
-0.30386603 0.20524806 -0.30543983 229 384
-0.31067052 0.20673966 -0.30057356 226 385
-0.31741211 0.20820305 -0.29561207 225 386
-0.3324452 0.21331039 -0.30245978 218 387
-0.060154028 0.092975192 0.091847256 228 389
-0.061578125 0.093271501 0.093019769 216 390
-0.30337271 0.1952976 -0.21019781 224 391
-0.29914832 0.19232932 -0.19338328 236 392
-0.30445465 0.19339487 -0.18864012 237 393
-0.30969921 0.19443476 -0.18382314 237 394
-0.30528042 0.1915217 -0.16809782 238 395
-0.31025085 0.1924811 -0.16327918 236 396
-0.3151584 0.19341502 -0.15839154 234 397
-0.32000217 0.19432324 -0.15343589 236 398
-0.33496109 0.19924209 -0.15866393 238 399
-0.33981451 0.20012385 -0.15342394 235 400
-0.35575452 0.20533767 -0.15872654 235 401
-0.36061504 0.20619082 -0.15318817 237 402
-0.36540309 0.20701581 -0.14758274 235 403
-0.37011769 0.20781252 -0.14191142 235 404
-0.37475798 0.20858079 -0.13617525 235 405
-0.38381201 0.21003142 -0.12451273 236 407
-0.38822407 0.21071351 -0.11858863 235 408
-0.38030457 0.20682761 -0.10337129 234 409
-0.38443318 0.20743296 -0.097507983 235 410
-0.38848469 0.20800993 -0.091588289 235 411
-0.39245835 0.20855841 -0.0856134 236 412
-0.38440266 0.20475808 -0.071614891 231 413
-0.38810828 0.20523512 -0.065708429 233 414
-0.39173618 0.20568421 -0.059751749 234 415
-0.38055673 0.20087302 -0.04481934 234 416
-0.38225302 0.20066902 -0.038013488 235 417
-0.38301364 0.2001428 -0.030738935 234 418
-0.38114241 0.19870687 -0.022114545 236 419
-0.3740482 0.19547582 -0.010910273 235 420
-0.37268475 0.19426283 -0.0030070245 238 421
-0.37632751 0.1947858 0.0022746772 236 422
-0.37213969 0.19262916 0.011309862 234 423
-0.37386528 0.19250777 0.017396882 236 424
-0.37463012 0.19206446 0.023877904 233 425
-0.37353837 0.1910027 0.031085536 233 426
-0.36790428 0.18843296 0.040019393 236 427
-0.36833373 0.18790933 0.046326861 234 428
-0.35345545 0.18232155 0.058281377 235 429
-0.34731981 0.179672 0.066564158 236 430
-0.3455517 0.17848131 0.073099919 233 431
-0.36730158 0.18497387 0.07190226 233 432
-0.36817229 0.18462434 0.077773482 235 433
-0.3689608 0.18425113 0.083641075 234 434
-0.36874664 0.18355858 0.089758396 234 435
-0.36567023 0.18195671 0.096566759 233 436
-0.35877299 0.17915386 0.10417223 236 437
-0.35639814 0.17780878 0.11048182 234 438
-0.36420336 0.17968185 0.11448945 234 439
-0.37947661 0.1838752 0.11720179 236 440
-0.38065875 0.18363015 0.12294422 235 441
-0.3817645 0.18336128 0.12870076 234 442
-0.38279372 0.18306863 0.13447034 235 443
-0.38374615 0.1827523 0.14025183 234 444
-0.38367224 0.18212199 0.14616358 234 445
-0.38351744 0.1814698 0.15205768 236 446
-0.38137612 0.18021888 0.15811706 234 447
-0.37723958 0.17837524 0.16425826 236 448
-0.38161597 0.17909789 0.16968688 236 449
-0.37539849 0.1766488 0.17579009 238 450
-0.37771276 0.17675191 0.18137082 236 451
-0.38187236 0.17739427 0.18696287 235 452
-0.38883913 0.17885008 0.19263823 235 453
-0.032066986 -0.32473436 1.9215899 1832 0
-0.023209628 -0.29596353 1.9252391 1899 1
-0.014284231 -0.266904 1.9263765 1933 2
-0.0053736344 -0.23787832 1.9269769 1936 3
0.0034407638 -0.20925814 1.9310247 1790 4
0.012290284 -0.18048298 1.9335536 1872 5
0.021128621 -0.15178353 1.9375536 1891 6
0.029992402 -0.12298714 1.9410305 1799 7
0.038877331 -0.094054528 1.9419826 1848 8
0.047785558 -0.065138586 1.9464062 1935 9
0.056742638 -0.036075898 1.9513007 1898 10
0.065680377 -0.0069554821 1.9516639 1875 11
0.074747384 0.022440664 1.9574879 1886 12
0.083874553 0.052047424 1.9627674 1814 13
0.093058996 0.081855468 1.9674964 1737 14
0.10226121 0.11176287 1.9706742 1739 15
0.11146303 0.14171031 1.9723009 1731 16
0.1208331 0.1721417 1.9763427 1721 17
0.13020691 0.20262703 1.9788198 1669 18
0.13962308 0.23326573 1.9807203 1681 19
0.14932561 0.26474857 1.9859698 1668 20
0.15877026 0.29553771 1.9857104 1646 21
0.1689555 0.32849607 1.9946221 1649 22
0.17864576 0.36006626 1.9950943 1620 23
0.18878043 0.39297214 1.9997922 1621 24
0.19882372 0.42564923 2.0019035 1538 25
0.20892552 0.4585343 2.0033646 1559 26
0.21927473 0.49219251 2.0060732 1544 27
0.2294921 0.52548987 2.0062017 1567 28
0.24039218 0.56087947 2.0113082 1431 29
0.25283152 0.60098165 2.0278256 1486 30
0.26422045 0.63795763 2.0331984 1378 31
0.275359 0.67421252 2.035002 1339 32
0.28732306 0.71303207 2.0415273 1340 33
0.29876813 0.75030452 2.0426431 1320 34
0.31042391 0.788261 2.0438528 1317 35
0.32285282 0.82864046 2.0486977 1275 36
0.33483061 0.86766875 2.0490792 1289 37
0.34821457 0.91109246 2.0564861 1169 38
0.36038545 0.95079845 2.0550427 1214 39
0.37434235 0.99609739 2.0621662 1123 40
0.38685194 1.0369352 2.0596821 1119 41
0.40502805 1.0955033 2.0848782 983 42
0.41966376 1.1430851 2.0893497 1007 43
0.43461567 1.1917071 2.0934691 855 44
0.45148358 1.2463892 2.1044998 865 45
0.46711788 1.2972602 2.1076822 828 46
0.48345098 1.3503797 2.1119511 813 47
0.49786064 1.3974955 2.1062653 822 48
0.51503712 1.4533724 2.1102049 851 49
0.5319826 1.5085763 2.1111569 778 50
0.54866469 1.5629997 2.1091712 672 51
0.56893486 1.6288224 2.1182637 639 52
0.58964062 1.6960945 2.1262426 590 53
0.6186102 1.7896303 2.1593456 526 54
0.64396757 1.8718231 2.1763256 469 55
0.66877425 1.9523586 2.1881387 521 56
0.68919861 2.0190506 2.1834629 451 57
0.71357578 2.098376 2.1881657 481 58
0.74388707 2.1966727 2.2067308 404 59
0.77062207 2.2836802 2.2115238 372 60
0.80181926 2.3850026 2.2248907 361 61
0.83143955 2.4813974 2.2303026 303 62
0.87022603 2.6071606 2.2546985 328 63
0.90239352 2.7119048 2.2583373 309 64
0.92322999 2.7805107 2.2322729 565 65
0.92260444 2.7804759 2.1571064 534 66
0.92601699 2.7933292 2.0921896 513 67
0.92928737 2.8057015 2.027926 584 68
0.92882758 2.8060877 1.9572349 548 69
0.92843735 2.8066597 1.8880746 560 70
0.93389642 2.825979 1.8308158 591 71
0.91975856 2.7823248 1.7398872 196 72
0.93107575 2.8204205 1.6944886 196 73
0.9376229 2.8431878 1.6409025 583 74
0.93929052 2.8502486 1.5799468 595 75
0.9392463 2.8517771 1.5171995 608 76
0.94212633 2.8627057 1.4593763 627 77
0.93916714 2.8547962 1.3942939 581 78
0.94331998 2.8697987 1.3392584 594 79
0.94550437 2.878443 1.2820587 639 80
0.94372684 2.8742826 1.2208117 645 81
0.94498938 2.8799224 1.1636204 651 82
0.9482109 2.8918843 1.108783 646 83
0.95000494 2.8992257 1.0527495 667 84
0.95035714 2.9018934 0.99573994 699 85
0.95270133 2.911 0.94073653 708 86
0.95533466 2.9210403 0.8860718 663 87
0.95276982 2.9142311 0.82793707 684 88
0.95772111 2.9317772 0.77509207 677 89
0.9563005 2.9286587 0.71840513 652 90
0.95632982 2.9302347 0.66287661 665 91
0.96161669 2.9488795 0.60986602 725 92
0.96049482 2.946712 0.5540123 691 93
0.96113324 2.9502594 0.49901205 681 94
0.9650057 2.9643235 0.4448927 685 95
0.9647882 2.9650886 0.38960418 649 96
0.96604753 2.9706595 0.33460575 673 97
0.96731794 2.97627 0.27948669 688 98
0.96918511 2.9838288 0.22422192 721 99
0.96842122 2.9828167 0.16880518 658 100
0.97088993 2.9923487 0.11307955 715 101
0.9771651 3.0143137 0.05633986 620 102
0.97261518 3.0009573 0.0010965466 668 103
0.87356257 2.6788783 -0.027246594 105 104
0.72745866 2.2027075 -0.027815729 670 105
0.65294975 1.9621848 -0.11477083 92 108
0.64431036 1.9349024 -0.14760962 189 109
0.64298946 1.9315776 -0.18437523 953 110
0.6426205 1.9313766 -0.22193536 182 111
0.64091289 1.9267919 -0.25872472 165 112
0.65204167 1.9643334 -0.30636692 1064 113
0.64791495 1.9518355 -0.34206718 253 114
0.043764248 -0.028910913 0.096104577 462 177
0.018855674 -0.11052789 0.11239362 546 222
-0.237894 -0.93308496 -0.42198765 500 245
-0.23621818 -0.92833322 -0.39535677 2178 246
-0.2378833 -0.93426085 -0.37657762 2082 247
-0.23908421 -0.93927276 -0.33540362 333 249
-0.23988399 -0.94240516 -0.31568247 277 250
-0.44663319 -1.6132076 -0.42969596 788 258
-0.40540445 -1.4826193 -0.28771907 732 261
-0.40457171 -1.4806913 -0.25824285 685 262
-0.40669352 -1.4883043 -0.23207891 716 263
-0.40725553 -1.4908724 -0.20446163 746 264
-0.48875687 -1.7588331 -0.11709419 1628 269
-0.48894265 -1.7602881 -0.085233688 2206 270
-0.48692313 -1.7545812 -0.052411109 2398 271
-0.48794135 -1.7587297 -0.021287352 2993 272
-0.48616818 -1.7538085 0.010893971 3009 273
-0.48832634 -1.7616594 0.041529357 2835 274
-0.49150005 -1.7728179 0.072089016 2801 275
-0.49011818 -1.7691613 0.10386708 2622 276
-0.49502817 -1.7859831 0.13458399 2375 277
-0.49244282 -1.7784065 0.1664492 1860 278
-0.49409679 -1.7846366 0.19793376 1705 279
-0.49646714 -1.7932084 0.22966719 1554 280
-0.49486282 -1.7888234 0.26132283 1470 281
-0.49748817 -1.7982388 0.2935285 1389 282
-0.49935809 -1.805198 0.32596254 1430 283
-0.49901399 -1.8049334 0.35810059 1418 284
-0.50083339 -1.8117419 0.39105666 1248 285
-0.50015241 -1.8103843 0.42337111 1390 286
-0.5010429 -1.8141696 0.45649266 1355 287
-0.50175631 -1.8173832 0.48981518 1359 288
-0.50286674 -1.8219048 0.52366465 1258 289
-0.50178492 -1.8192534 0.55646241 1220 290
-0.50367522 -1.8263482 0.59148693 1120 291
-0.50593704 -1.8346751 0.62731266 1181 292
-0.50374508 -1.8284026 0.66000336 1216 293
-0.50674039 -1.8391623 0.6974107 1168 294
-0.50783074 -1.8436842 0.73372078 1145 295
-0.51094306 -1.8548657 0.77263939 1175 296
-0.50882912 -1.8488827 0.80664963 1161 297
-0.50984073 -1.8531877 0.84445715 1126 298
-0.51090276 -1.857675 0.88293672 1056 299
-0.51200664 -1.8623178 0.9221226 1100 300
-0.51098514 -1.8599743 0.95909059 1180 301
-0.51403588 -1.8710709 1.0023601 1053 302
-0.51335275 -1.8698757 1.0410322 971 303
-0.51296777 -1.8696793 1.0807335 985 304
-0.51495349 -1.8773319 1.1250123 982 305
-0.51690811 -1.8849093 1.1702785 977 306
-0.51933217 -1.8940684 1.2174881 858 307
-0.73429406 -2.6066947 1.6681868 423 308
-0.71128494 -2.532146 1.6848069 493 309
-0.68463957 -2.4454811 1.6915003 503 310
-0.66186774 -2.3715787 1.7033719 505 311
-0.63897616 -2.2972126 1.7124662 570 312
-0.61598933 -2.2224612 1.7187554 582 313
-0.59482759 -2.1537037 1.7267683 623 314
-0.57450706 -2.0876806 1.7344909 696 315
-0.55893624 -2.0374045 1.7522259 687 316
-0.53997332 -1.9757922 1.7594225 689 317
-0.51508379 -1.8943659 1.7479681 839 318
-0.49603751 -1.8323441 1.7499964 818 319
-0.48063925 -1.7824422 1.7606722 879 320
-0.46402571 -1.7284371 1.7660103 897 321
-0.44816411 -1.6768975 1.7718916 921 322
-0.43427363 -1.6319107 1.7825904 1018 323
-0.41982585 -1.5850199 1.7900181 1039 324
-0.4042632 -1.5343487 1.7919254 1041 325
-0.39020649 -1.4886851 1.7975667 1069 326
-0.37643272 -1.4439319 1.8027689 1111 327
-0.36218572 -1.3975459 1.8045738 1131 328
-0.34916505 -1.3552468 1.8097539 1165 329
-0.33352587 -1.3040757 1.8022745 1192 330
-0.32108808 -1.2636579 1.8067653 1328 331
-0.308386 -1.2223099 1.8086805 1310 332
-0.29679191 -1.1846751 1.8144146 1347 333
-0.28607279 -1.1499773 1.8233472 1461 334
-0.27457854 -1.1126223 1.8273747 1357 335
-0.26392671 -1.0781013 1.8347139 1424 336
-0.25360575 -1.0446833 1.8429796 1479 337
-0.24227965 -1.0078106 1.8445423 1489 338
-0.23216942 -0.97506243 1.8521686 1530 339
-0.22139058 -0.94000024 1.8547403 1619 340
-0.21200264 -0.90968555 1.8653409 1624 341
-0.20067507 -0.87267756 1.8620088 1511 342
-0.19094777 -0.84114969 1.8685939 1565 343
-0.18111593 -0.8092398 1.8736297 1651 344
-0.17085558 -0.77581853 1.8743633 1664 345
-0.16055474 -0.74222195 1.8734696 1632 346
-0.15138015 -0.71252364 1.8811131 1702 347
-0.14189708 -0.68173015 1.8853855 1808 348
-0.132626 -0.65166116 1.8909211 1777 349
-0.12318144 -0.62096089 1.8939837 1741 350
-0.11351091 -0.58943206 1.8935924 1767 351
-0.10470321 -0.5609529 1.9021139 1760 352
-0.095110439 -0.5296452 1.9005113 1746 353
-0.085937172 -0.49981669 1.9031076 1823 354
-0.076916419 -0.47052166 1.9070702 1744 355
-0.067720138 -0.44056195 1.9075612 1841 356
-0.058837928 -0.4117409 1.9123632 1796 357
-0.04974588 -0.38211706 1.9127085 2033 358
-0.040913329 -0.35345519 1.9174128 1913 359
-0.39110452 0.17365749 0.19540432 235 0
-0.40372798 0.17661342 0.20141087 231 1
-0.41434324 0.17899945 0.20771861 230 2
-0.42294419 0.18082061 0.21424365 233 3
-0.4256686 0.181051 0.22068077 235 4
-0.431198 0.18202144 0.22740273 232 5
-0.4424139 0.18448597 0.2347801 233 6
-0.4496727 0.18587977 0.24209325 234 7
-0.44529104 0.18419681 0.2482944 233 8
-0.43699089 0.18149728 0.2538805 235 9
-0.44108686 0.18204451 0.26102456 235 10
-0.4489072 0.1835466 0.26889703 234 11
-0.46520242 0.18721703 0.27848309 236 12
-0.45655832 0.18443689 0.28390628 236 13
-0.46307039 0.18555266 0.29216516 236 14
-0.46186695 0.18468525 0.2989791 237 15
-0.46057212 0.18379456 0.30577332 236 16
-0.45918629 0.18288079 0.31254646 235 17
-0.45770955 0.1819441 0.31929722 237 18
-0.45614231 0.18098468 0.32602435 236 19
-0.45448485 0.18000267 0.33272657 238 20
-0.45273748 0.17899832 0.33940253 237 21
-0.45090047 0.17797178 0.34605104 237 22
-0.46281743 0.18031637 0.35734546 238 23
-0.44695917 0.17585295 0.35926056 236 24
-0.44485557 0.17476106 0.36581904 237 25
-0.45631969 0.17694363 0.37760404 237 26
-0.45397261 0.17577553 0.38428909 238 27
-0.44900951 0.17337482 0.39754975 238 29
-0.46065518 0.17551056 0.41054851 236 30
-0.4436909 0.17088971 0.41065618 238 31
-0.45499128 0.17290619 0.42397481 237 32
-0.45202398 0.17157236 0.43062317 237 33
-0.44896728 0.17021775 0.43722671 237 34
-0.45877603 0.1718134 0.45073819 235 35
-0.45545167 0.17037901 0.45743033 236 36
-0.45203719 0.16892406 0.46407253 238 37
-0.46205381 0.17049095 0.47865975 237 38
-0.45835677 0.16895238 0.48538801 238 39
-0.45456907 0.16739352 0.49206099 238 40
-0.45069143 0.1658147 0.49867737 239 41
-0.44672459 0.16421622 0.50523585 237 42
-0.45564288 0.16541776 0.52066493 239 43
-0.46343607 0.16633449 0.53582764 238 44
-0.45897499 0.16458835 0.54255378 238 45
-0.45442313 0.16282275 0.54921377 240 46
-0.46227267 0.16366954 0.56545216 240 47
-0.45741525 0.16181785 0.57215041 239 48
-0.46393842 0.16232333 0.58814538 237 49
-0.45877796 0.16038804 0.59485877 240 50
-0.46549764 0.16086963 0.61182868 238 51
-0.46002084 0.1588473 0.61855519 239 52
-0.46541896 0.15899542 0.63519901 238 53
-0.45962968 0.15688893 0.64191556 237 54
-0.46516353 0.15699664 0.65953493 239 55
-0.45904881 0.15480268 0.66623855 236 56
-0.45284337 0.15259117 0.6728524 237 57
-0.45683587 0.15230796 0.69011658 239 58
-0.46113309 0.15203476 0.70829952 240 59
-0.45436567 0.14966938 0.71492708 243 60
-0.45802233 0.14920196 0.73336291 240 61
-0.46062875 0.14849362 0.7512362 240 62
-0.45328715 0.145974 0.75784004 241 63
-0.46530172 0.14683047 0.78823972 237 64
-0.45746633 0.14417243 0.79489625 239 65
-0.45924905 0.14313862 0.81404996 242 66
-0.45106739 0.14039406 0.82061017 239 67
-0.46095717 0.14059436 0.85199964 240 68
-0.46147141 0.13918224 0.87157524 240 69
-0.45252109 0.13622791 0.87814522 240 70
-0.45178461 0.13453189 0.89701223 241 71
-0.45931259 0.13401473 0.92935216 241 72
-0.45809364 0.13209668 0.94936502 240 73
-0.4559077 0.12997597 0.96861827 240 74
-0.45380393 0.12780419 0.98879743 241 75
-0.45124799 0.12550366 1.0090497 239 76
-0.44775108 0.12301131 1.0284946 238 77
-0.45141479 0.12134858 1.0620317 236 78
-0.45426974 0.119447 1.095808 237 79
-0.44954056 0.11652523 1.1164435 237 80
-0.45093718 0.11420054 1.1505556 238 81
-0.45150879 0.11163643 1.1848583 237 82
-0.45125026 0.10883286 1.2193346 238 83
-0.45056012 0.10582707 1.2548814 235 84
-0.44861457 0.102541 1.2896581 236 85
-0.45151159 0.099462099 1.338429 235 86
-0.44805616 0.095667951 1.3744363 236 87
-0.4486855 0.091939457 1.4236239 233 88
-0.44842756 0.087878875 1.4739574 230 89
-0.45185244 0.083681926 1.538641 231 90
-0.44887984 0.078850158 1.5893924 229 91
-0.44463503 0.073661879 1.6402776 228 92
-0.44348857 0.068170018 1.7056174 227 93
-0.44514209 0.062205926 1.7865162 226 94
-0.44471705 0.055654921 1.8676896 227 95
-0.43815216 0.04864338 1.933616 236 96
-0.4188453 0.041700631 1.9549774 235 97
-0.39540201 0.034886919 1.9605255 235 98
-0.36844754 0.02838394 1.9501127 234 99
-0.34505966 0.021642171 1.9549437 235 100
-0.32160279 0.014908202 1.9594392 234 101
-0.29527518 0.0086686611 1.9478536 235 102
-0.2719036 0.0020139962 1.9516413 235 103
-0.24847686 -0.004629083 1.9550942 234 104
-0.22296067 -0.010636553 1.9433638 235 105
-0.19963527 -0.017196991 1.9461216 237 106
-0.17626853 -0.023742191 1.9485455 236 107
-0.15286493 -0.030270912 1.9506348 236 108
-0.12942892 -0.0367819 1.9523896 236 109
-0.10596499 -0.043273933 1.9538093 237 110
-0.081575587 -0.048727088 1.9389516 235 111
-0.058282167 -0.055119045 1.9396937 238 112
-0.034974381 -0.061488509 1.9401032 235 113
-0.011656661 -0.06783431 1.9401798 237 114
0.011666538 -0.074155204 1.9399238 235 115
0.034990765 -0.080450021 1.939335 234 116
0.058311582 -0.086717539 1.9384136 234 117
0.081624538 -0.09295655 1.9371599 235 118
0.10492519 -0.099165909 1.9355742 235 119
0.12820907 -0.10534438 1.9336563 237 120
0.15147178 -0.11149082 1.9314071 236 121
0.17470884 -0.11760404 1.9288269 236 122
0.19956923 -0.12538686 1.9417388 237 123
0.22295362 -0.1314854 1.9384685 237 124
0.24629875 -0.13754696 1.9348655 237 125
0.26960018 -0.1435703 1.9309309 236 126
0.29285344 -0.14955431 1.9266654 238 127
0.31605414 -0.15549788 1.9220695 237 128
0.34193382 -0.16330317 1.9317696 235 129
0.36521211 -0.1692121 1.9264716 236 130
0.38842404 -0.17507687 1.9208435 237 131
0.41510907 -0.18308458 1.9303347 237 132
0.43838218 -0.18890941 1.9239932 237 133
0.4655326 -0.19697782 1.9326545 235 134
0.4888463 -0.20275658 1.9255927 236 135
0.51616544 -0.21072832 1.9324552 235 136
0.54405874 -0.21889496 1.9398079 233 137
0.57196027 -0.22695181 1.945747 234 138
0.59546942 -0.23266292 1.9371616 236 139
0.6240477 -0.24090838 1.9431592 234 140
0.65257585 -0.24902791 1.94774 234 141
0.68170619 -0.25734568 1.9527565 232 142
0.70533007 -0.26296362 1.9426026 233 143
0.72882259 -0.26851946 1.9321153 235 144
0.75835025 -0.27683857 1.9357861 235 145
0.78772968 -0.28500509 1.9380406 234 146
0.81773639 -0.29337257 1.9406787 232 147
0.84755462 -0.30157655 1.9419008 234 148
0.87800783 -0.30998176 1.943483 234 149
0.90154517 -0.31535441 1.9305316 233 150
0.93909878 -0.32664472 1.9441552 232 151
0.96265674 -0.33195382 1.9303318 233 152
0.99372828 -0.34036285 1.9298421 232 153
1.0323691 -0.35179269 1.9414973 234 154
1.0559094 -0.35699159 1.9263443 233 155
1.0869783 -0.36520061 1.9233409 234 156
1.1023912 -0.36714834 1.8950508 234 157
1.1419852 -0.3786408 1.9042277 235 158
1.1820509 -0.39019698 1.9125892 235 159
1.2141837 -0.39857882 1.9081175 234 160
1.2458653 -0.40672854 1.9022645 235 161
1.2782164 -0.41507667 1.8966187 235 162
1.3195397 -0.42673862 1.9020021 234 163
1.3516363 -0.43485153 1.894262 234 164
1.3942004 -0.44678462 1.8988101 234 165
1.4265776 -0.45486808 1.8897369 234 166
1.4691148 -0.46660447 1.8918961 232 167
1.5119989 -0.47836411 1.8931588 234 168
1.5558672 -0.49037665 1.8942368 232 169
1.599408 -0.50216985 1.8936707 232 170
1.6432483 -0.51397127 1.8921822 230 171
1.6873716 -0.52577591 1.8897632 231 172
1.7317617 -0.5375787 1.8864061 231 173
1.7764016 -0.54937446 1.8821031 230 174
1.8326222 -0.56508172 1.8874229 230 175
1.8778557 -0.57687402 1.8810415 231 176
1.9349183 -0.59261775 1.8839335 231 177
1.9924395 -0.60838187 1.8855113 229 178
2.0496504 -0.62390757 1.8851441 229 179
2.0959644 -0.6356433 1.874343 230 180
2.1545746 -0.65140027 1.8720961 227 181
2.2250836 -0.67098165 1.8772805 226 182
2.2969477 -0.69084185 1.8813373 225 183
2.3560295 -0.70632982 1.8740779 227 184
2.428853 -0.72618937 1.8748362 225 185
2.5013747 -0.74578422 1.873289 225 186
2.5743468 -0.76536244 1.869987 224 187
2.6607718 -0.78911406 1.8731912 223 188
2.7987573 -0.82919669 1.9055649 217 189
2.9646871 -0.87783915 1.9500754 215 190
3.0797734 -0.90990114 1.9598119 215 191
3.1822584 -0.93770683 1.9590759 212 192
3.2853508 -0.96547198 1.9557439 214 193
3.3898571 -0.99344945 1.950245 216 194
3.4544244 -1.0087471 1.9217728 218 195
3.5726435 -1.0405773 1.917841 217 196
3.704551 -1.0763717 1.9169691 214 197
4.5681977 -1.3067168 1.8606305 212 203
4.7748108 -1.3627803 1.8592266 212 204
4.968647 -1.4145646 1.8476639 211 205
5.2493553 -1.4917262 1.8582785 212 206
5.6741662 -1.6108745 1.9043052 168 207
6.0865731 -1.7253743 1.9342365 171 208
6.399797 -1.8098226 1.925251 174 209
6.7438927 -1.9025857 1.9152763 142 210
7.3510356 -2.0711081 1.9587926 96 211
7.7271099 -2.1712794 1.9325883 100 212
8.6163511 -2.41869 2.0037298 77 213
9.0206184 -2.5140841 1.8205849 67 215
10.020368 -2.7884953 1.8533192 48 216
10.51854 -2.918252 1.7815692 38 217
7.3864484 -1.9199283 -0.069559634 210 230
7.3698425 -1.907143 -0.17388058 212 231
7.245769 -1.8657194 -0.27087778 210 232
7.181169 -1.8403659 -0.36913398 213 233
7.1903963 -1.8346742 -0.47257254 210 234
7.167449 -1.8204719 -0.57301533 35 235
7.308404 -1.8492827 -0.69300342 32 236
7.3420467 -1.849732 -0.80271161 161 237
3.7937353 -0.90151215 -0.59447074 219 242
3.799052 -0.8984406 -0.65144885 219 243
3.8026214 -0.89489025 -0.70847034 214 244
3.0878398 -0.71044475 -0.58369577 116 245
3.10711 -0.71161401 -0.63503206 103 246
3.110631 -0.7087853 -0.68278742 32 247
3.8255756 -0.882478 -0.94375169 71 248
3.78229 -0.86715317 -0.98860705 218 249
3.7819781 -0.86245811 -1.0467601 220 250
3.7799048 -0.8572948 -1.1047775 219 251
3.7916639 -0.85546076 -1.1682374 218 252
3.7458649 -0.83962601 -1.2109053 213 253
1.4391341 -0.26442584 -0.55546904 211 262
1.4293684 -0.26018476 -0.57547283 212 263
1.4193332 -0.25588214 -0.59532964 213 264
1.3963072 -0.24864668 -0.6076287 214 265
1.3858359 -0.24426383 -0.62700152 211 266
1.3876314 -0.24261311 -0.65398049 212 267
2.1892316 -0.41786882 -1.1924078 217 268
2.1201594 -0.39933261 -1.1893373 222 269
2.0637703 -0.38372254 -1.192854 221 270
1.9955552 -0.36567396 -1.1865716 222 271
1.9398662 -0.35047972 -1.1872442 224 272
1.8971882 -0.33818391 -1.1959763 221 273
1.2802935 -0.20451084 -0.76647711 210 274
1.2319448 -0.19218433 -0.75615036 211 275
1.1948553 -0.18232569 -0.75330722 210 276
1.1588178 -0.17277223 -0.75022244 210 277
1.0407468 -0.14264116 -0.72536707 212 280
1.006106 -0.13374341 -0.71880102 212 281
0.98330605 -0.12726411 -0.7223376 214 282
1.3656527 -0.19383517 -1.1938663 218 285
1.3262224 -0.18340296 -1.1902308 225 286
1.2871281 -0.17312974 -1.1857414 225 287
1.2583147 -0.16483918 -1.1915017 225 288
1.2197918 -0.15484357 -1.1854702 226 289
1.1912836 -0.14673522 -1.1899792 226 290
1.153385 -0.13702911 -1.1824371 228 291
1.125849 -0.12922096 -1.1864933 227 292
1.0977955 -0.12137573 -1.1892421 227 293
1.0698656 -0.11360659 -1.1914549 225 294
1.0426598 -0.10601299 -1.1939365 226 295
1.006286 -0.096993335 -1.1829654 227 296
0.97893095 -0.089514785 -1.1834847 226 297
0.95229572 -0.082207449 -1.1843129 227 298
0.92526013 -0.074896447 -1.1838137 229 299
0.89840239 -0.067673944 -1.1828088 227 300
0.87225688 -0.060617566 -1.1821507 227 301
0.85400426 -0.054729275 -1.1938269 225 302
0.31810722 0.021678582 -0.319787 230 303
0.31914985 0.022821337 -0.33777657 234 304
0.31208056 0.02506892 -0.34188315 233 305
0.75036418 -0.027392551 -1.1832144 219 306
0.72475946 -0.020769365 -1.178947 229 307
0.24199478 0.037326895 -0.25614631 221 308
0.22429742 0.040452894 -0.23488453 239 309
0.21437009 0.042655252 -0.2286191 238 310
0.2087402 0.044396266 -0.23127228 237 311
0.2030738 0.046140771 -0.2338441 238 312
0.19698669 0.047920048 -0.23541182 238 313
0.19051673 0.049722552 -0.23595956 238 314
0.18334155 0.05156083 -0.23454005 237 315
0.17484054 0.05345279 -0.22925085 237 316
0.16919468 0.055153415 -0.23133975 236 317
0.16351981 0.056855481 -0.2333473 236 318
0.15781701 0.058558661 -0.23527315 235 319
0.15208736 0.060262632 -0.23711687 237 320
0.14604667 0.061968647 -0.23791969 236 321
0.13973427 0.063665107 -0.23767018 238 322
0.13318989 0.065340392 -0.23635802 237 323
0.12571281 0.066953823 -0.231067 238 324
0.12050125 0.068634883 -0.23439854 238 325
0.11543927 0.070347063 -0.23863551 237 326
0.11090481 0.072143205 -0.24574065 236 327
0.10736629 0.074130863 -0.25867692 235 328
0.10568047 0.076547787 -0.28338146 238 329
0.10233653 0.078948498 -0.30219507 237 330
0.098036855 0.08137282 -0.31802896 235 331
0.091189384 0.083310582 -0.31898805 226 332
0.043591201 0.071580216 -0.0077934116 223 333
0.037754998 0.07289657 -0.0043825209 231 335
0.035806164 0.074074514 -0.012557179 230 336
0.033030875 0.074843965 -0.012745038 227 337
0.048908256 0.093914166 -0.30773714 226 338
0.042188995 0.095761806 -0.30799934 233 339
0.035464946 0.097603142 -0.3081654 234 340
0.02873739 0.099437818 -0.30823562 224 341
0.015223335 0.10428574 -0.32303962 214 343
0.00854652 0.1048984 -0.30786988 235 344
0.001817775 0.10670295 -0.30755606 234 345
-0.0049080644 0.10849912 -0.3071464 236 346
-0.011629706 0.11028655 -0.30664077 236 347
-0.018345872 0.11206491 -0.3060396 236 348
-0.025055291 0.11383384 -0.30534276 238 349
-0.030209364 0.11391681 -0.28871387 236 350
-0.036689393 0.1156105 -0.2878544 236 351
-0.043282382 0.11740575 -0.28788885 235 352
-0.04989028 0.11919744 -0.28782704 235 353
-0.056661375 0.12110366 -0.28865033 236 354
-0.063796543 0.12325603 -0.29132992 235 355
-0.07172478 0.12592466 -0.29780152 231 356
-0.081168339 0.12953457 -0.31094924 234 357
-0.087955385 0.13125339 -0.30935416 234 358
-0.091497347 0.13093209 -0.2931546 233 359
-0.10146812 0.13465151 -0.30587563 232 360
-0.10819122 0.13633016 -0.30399284 227 361
-0.059056751 0.10613405 -0.091616422 231 362
-0.062907159 0.10708611 -0.090420544 225 363
-0.12821208 0.14128053 -0.2977747 221 364
-0.13483199 0.14290109 -0.29551339 231 365
-0.14142293 0.14450637 -0.2931585 233 366
-0.14798364 0.14609605 -0.29071048 236 367
-0.15979266 0.15028465 -0.30304548 237 368
-0.16648906 0.15189014 -0.30033159 226 369
-0.18528461 0.15763456 -0.30833098 229 371
-0.19205655 0.15923157 -0.30525133 231 372
-0.19878861 0.16081019 -0.30207619 231 373
-0.2054795 0.16237009 -0.29880628 229 374
-0.21878372 0.16685033 -0.309692 229 375
-0.22558025 0.16841608 -0.30613384 230 376
-0.23233052 0.16996172 -0.3024801 229 377
-0.23903322 0.17148688 -0.29873139 229 378
-0.25310203 0.17610392 -0.30872074 229 379
-0.25989217 0.17762917 -0.30467325 228 380
-0.26662946 0.17913249 -0.30053049 228 381
-0.28078416 0.18364772 -0.3089411 228 382
-0.28758249 0.18514387 -0.30449861 228 383
-0.29432273 0.18661666 -0.29996079 227 384
-0.30951419 0.19142044 -0.30845544 227 385
-0.31631154 0.19288385 -0.30360323 225 386
-0.33135456 0.19753826 -0.31072292 225 387
-0.33818638 0.19898626 -0.30555817 220 388
-0.065575399 0.093872711 0.085397132 230 390
-0.30835754 0.18354589 -0.21309611 222 392
-0.3138797 0.18466678 -0.20829675 235 393
-0.30929643 0.18209049 -0.1915186 236 394
-0.3049646 0.1796582 -0.17569473 237 395
-0.30998611 0.18064794 -0.17095807 235 396
-0.31494522 0.1816152 -0.16615155 236 397
-0.31984106 0.18255976 -0.16127613 236 398
-0.32467261 0.18348148 -0.15633273 235 399
-0.33973166 0.18799478 -0.16161764 238 400
-0.34457156 0.18889624 -0.15639031 236 401
-0.36061713 0.19368401 -0.16175395 235 402
-0.36546287 0.19456345 -0.15622857 237 403
-0.37023565 0.1954177 -0.15063611 234 404
-0.38590515 0.19998434 -0.15450013 235 405
-0.37955877 0.19705018 -0.13925442 237 406
-0.38410732 0.19782805 -0.13346735 235 407
-0.38857937 0.19858015 -0.12761757 237 408
-0.38073361 0.19522816 -0.11224356 235 409
-0.38492122 0.19590741 -0.10645005 234 410
-0.38903224 0.19656125 -0.10059899 233 411
-0.39306578 0.19718957 -0.094691485 234 412
-0.39702111 0.1977922 -0.088728696 236 413
-0.38884047 0.19445524 -0.074692428 234 414
-0.39252758 0.19499037 -0.068797559 234 415
-0.38222638 0.19102934 -0.054162353 234 416
-0.3848125 0.19123363 -0.047870383 234 417
-0.38730821 0.19141158 -0.041555882 234 418
-0.38803583 0.19103175 -0.034269691 236 419
-0.38695601 0.19008937 -0.026086062 235 420
-0.38062516 0.18751115 -0.015276805 234 421
-0.38180077 0.18730499 -0.0086446851 234 422
-0.38114819 0.18653503 -0.001170814 236 423
-0.37689328 0.18465939 0.0078956336 235 424
-0.3785986 0.1846399 0.013989642 235 425
-0.38021719 0.18459611 0.020092979 234 426
-0.38086286 0.18425736 0.02658014 235 427
-0.37873709 0.18308026 0.034137309 236 428
-0.37289876 0.18079048 0.042997375 233 429
-0.3578836 0.17575446 0.055026159 233 430
-0.35258228 0.1736791 0.063023299 236 431
-0.35260019 0.17321247 0.068970531 231 432
-0.36533818 0.17653725 0.070717216 230 433
-0.37534806 0.17902566 0.073657542 233 434
-0.37889528 0.17958558 0.078760013 235 435
-0.37218744 0.17712602 0.086779647 233 436
-0.36906031 0.17573506 0.093600452 234 437
-0.36208841 0.17323433 0.10123386 237 438
-0.35966963 0.17207572 0.10755288 233 439
-0.36749661 0.17388856 0.11152838 233 440
-0.38283798 0.17784959 0.11417808 235 441
-0.38399884 0.17771035 0.11991522 235 442
-0.3850832 0.17754921 0.12566672 233 443
-0.38514003 0.17709568 0.13158211 236 444
-0.38511553 0.17662123 0.13748245 234 445
-0.38405508 0.17585665 0.14348985 234 446
-0.38003972 0.17426613 0.14978147 235 447
-0.38647544 0.17561096 0.15488929 233 448
-0.38325253 0.1742509 0.16099179 236 449
-0.37705839 0.17207488 0.16719662 236 450
-0.37847173 0.1720168 0.17277625 237 451
-0.37981164 0.17193621 0.1783877 236 452
-0.38204154 0.17209734 0.18400261 236 453
-0.38612717 0.17276062 0.18964772 235 454
-0.032066986 -0.32473436 1.9215899 1832 0
-0.023209628 -0.29596353 1.9252391 1899 1
-0.014284231 -0.266904 1.9263765 1933 2
-0.0053736344 -0.23787832 1.9269769 1936 3
0.0034407638 -0.20925814 1.9310247 1790 4
0.012290284 -0.18048298 1.9335536 1872 5
0.021128621 -0.15178353 1.9375536 1891 6
0.029992402 -0.12298714 1.9410305 1799 7
0.038877331 -0.094054528 1.9419826 1848 8
0.047785558 -0.065138586 1.9464062 1935 9
0.056742638 -0.036075898 1.9513007 1898 10
0.065680377 -0.0069554821 1.9516639 1875 11
0.074747384 0.022440664 1.9574879 1886 12
0.083874553 0.052047424 1.9627674 1814 13
0.093058996 0.081855468 1.9674964 1737 14
0.10226121 0.11176287 1.9706742 1739 15
0.11146303 0.14171031 1.9723009 1731 16
0.1208331 0.1721417 1.9763427 1721 17
0.13020691 0.20262703 1.9788198 1669 18
0.13962308 0.23326573 1.9807203 1681 19
0.14932561 0.26474857 1.9859698 1668 20
0.15877026 0.29553771 1.9857104 1646 21
0.1689555 0.32849607 1.9946221 1649 22
0.17864576 0.36006626 1.9950943 1620 23
0.18878043 0.39297214 1.9997922 1621 24
0.19882372 0.42564923 2.0019035 1538 25
0.20892552 0.4585343 2.0033646 1559 26
0.21927473 0.49219251 2.0060732 1544 27
0.2294921 0.52548987 2.0062017 1567 28
0.24039218 0.56087947 2.0113082 1431 29
0.25283152 0.60098165 2.0278256 1486 30
0.26422045 0.63795763 2.0331984 1378 31
0.275359 0.67421252 2.035002 1339 32
0.28732306 0.71303207 2.0415273 1340 33
0.29876813 0.75030452 2.0426431 1320 34
0.31042391 0.788261 2.0438528 1317 35
0.32285282 0.82864046 2.0486977 1275 36
0.33483061 0.86766875 2.0490792 1289 37
0.34821457 0.91109246 2.0564861 1169 38
0.36038545 0.95079845 2.0550427 1214 39
0.37434235 0.99609739 2.0621662 1123 40
0.38685194 1.0369352 2.0596821 1119 41
0.40502805 1.0955033 2.0848782 983 42
0.41966376 1.1430851 2.0893497 1007 43
0.43461567 1.1917071 2.0934691 855 44
0.45148358 1.2463892 2.1044998 865 45
0.46711788 1.2972602 2.1076822 828 46
0.48345098 1.3503797 2.1119511 813 47
0.49786064 1.3974955 2.1062653 822 48
0.51503712 1.4533724 2.1102049 851 49
0.5319826 1.5085763 2.1111569 778 50
0.54866469 1.5629997 2.1091712 672 51
0.56893486 1.6288224 2.1182637 639 52
0.58964062 1.6960945 2.1262426 590 53
0.6186102 1.7896303 2.1593456 526 54
0.64396757 1.8718231 2.1763256 469 55
0.66877425 1.9523586 2.1881387 521 56
0.68919861 2.0190506 2.1834629 451 57
0.71357578 2.098376 2.1881657 481 58
0.74388707 2.1966727 2.2067308 404 59
0.77062207 2.2836802 2.2115238 372 60
0.80181926 2.3850026 2.2248907 361 61
0.83143955 2.4813974 2.2303026 303 62
0.87022603 2.6071606 2.2546985 328 63
0.90239352 2.7119048 2.2583373 309 64
0.92322999 2.7805107 2.2322729 565 65
0.92260444 2.7804759 2.1571064 534 66
0.92601699 2.7933292 2.0921896 513 67
0.92928737 2.8057015 2.027926 584 68
0.92882758 2.8060877 1.9572349 548 69
0.92843735 2.8066597 1.8880746 560 70
0.93389642 2.825979 1.8308158 591 71
0.91975856 2.7823248 1.7398872 196 72
0.93107575 2.8204205 1.6944886 196 73
0.9376229 2.8431878 1.6409025 583 74
0.93929052 2.8502486 1.5799468 595 75
0.9392463 2.8517771 1.5171995 608 76
0.94212633 2.8627057 1.4593763 627 77
0.93916714 2.8547962 1.3942939 581 78
0.94331998 2.8697987 1.3392584 594 79
0.94550437 2.878443 1.2820587 639 80
0.94372684 2.8742826 1.2208117 645 81
0.94498938 2.8799224 1.1636204 651 82
0.9482109 2.8918843 1.108783 646 83
0.95000494 2.8992257 1.0527495 667 84
0.95035714 2.9018934 0.99573994 699 85
0.95270133 2.911 0.94073653 708 86
0.95533466 2.9210403 0.8860718 663 87
0.95276982 2.9142311 0.82793707 684 88
0.95772111 2.9317772 0.77509207 677 89
0.9563005 2.9286587 0.71840513 652 90
0.95632982 2.9302347 0.66287661 665 91
0.96161669 2.9488795 0.60986602 725 92
0.96049482 2.946712 0.5540123 691 93
0.96113324 2.9502594 0.49901205 681 94
0.9650057 2.9643235 0.4448927 685 95
0.9647882 2.9650886 0.38960418 649 96
0.96604753 2.9706595 0.33460575 673 97
0.96731794 2.97627 0.27948669 688 98
0.96918511 2.9838288 0.22422192 721 99
0.96842122 2.9828167 0.16880518 658 100
0.97088993 2.9923487 0.11307955 715 101
0.9771651 3.0143137 0.05633986 620 102
0.97261518 3.0009573 0.0010965466 668 103
0.87356257 2.6788783 -0.027246594 105 104
0.72745866 2.2027075 -0.027815729 670 105
0.65294975 1.9621848 -0.11477083 92 108
0.64431036 1.9349024 -0.14760962 189 109
0.64298946 1.9315776 -0.18437523 953 110
0.6426205 1.9313766 -0.22193536 182 111
0.64091289 1.9267919 -0.25872472 165 112
0.65204167 1.9643334 -0.30636692 1064 113
0.64791495 1.9518355 -0.34206718 253 114
0.043764248 -0.028910913 0.096104577 462 177
0.018855674 -0.11052789 0.11239362 546 222
-0.237894 -0.93308496 -0.42198765 500 245
-0.23621818 -0.92833322 -0.39535677 2178 246
-0.2378833 -0.93426085 -0.37657762 2082 247
-0.23908421 -0.93927276 -0.33540362 333 249
-0.23988399 -0.94240516 -0.31568247 277 250
-0.44663319 -1.6132076 -0.42969596 788 258
-0.40540445 -1.4826193 -0.28771907 732 261
-0.40457171 -1.4806913 -0.25824285 685 262
-0.40669352 -1.4883043 -0.23207891 716 263
-0.40725553 -1.4908724 -0.20446163 746 264
-0.48875687 -1.7588331 -0.11709419 1628 269
-0.48894265 -1.7602881 -0.085233688 2206 270
-0.48692313 -1.7545812 -0.052411109 2398 271
-0.48794135 -1.7587297 -0.021287352 2993 272
-0.48616818 -1.7538085 0.010893971 3009 273
-0.48832634 -1.7616594 0.041529357 2835 274
-0.49150005 -1.7728179 0.072089016 2801 275
-0.49011818 -1.7691613 0.10386708 2622 276
-0.49502817 -1.7859831 0.13458399 2375 277
-0.49244282 -1.7784065 0.1664492 1860 278
-0.49409679 -1.7846366 0.19793376 1705 279
-0.49646714 -1.7932084 0.22966719 1554 280
-0.49486282 -1.7888234 0.26132283 1470 281
-0.49748817 -1.7982388 0.2935285 1389 282
-0.49935809 -1.805198 0.32596254 1430 283
-0.49901399 -1.8049334 0.35810059 1418 284
-0.50083339 -1.8117419 0.39105666 1248 285
-0.50015241 -1.8103843 0.42337111 1390 286
-0.5010429 -1.8141696 0.45649266 1355 287
-0.50175631 -1.8173832 0.48981518 1359 288
-0.50286674 -1.8219048 0.52366465 1258 289
-0.50178492 -1.8192534 0.55646241 1220 290
-0.50367522 -1.8263482 0.59148693 1120 291
-0.50593704 -1.8346751 0.62731266 1181 292
-0.50374508 -1.8284026 0.66000336 1216 293
-0.50674039 -1.8391623 0.6974107 1168 294
-0.50783074 -1.8436842 0.73372078 1145 295
-0.51094306 -1.8548657 0.77263939 1175 296
-0.50882912 -1.8488827 0.80664963 1161 297
-0.50984073 -1.8531877 0.84445715 1126 298
-0.51090276 -1.857675 0.88293672 1056 299
-0.51200664 -1.8623178 0.9221226 1100 300
-0.51098514 -1.8599743 0.95909059 1180 301
-0.51403588 -1.8710709 1.0023601 1053 302
-0.51335275 -1.8698757 1.0410322 971 303
-0.51296777 -1.8696793 1.0807335 985 304
-0.51495349 -1.8773319 1.1250123 982 305
-0.51690811 -1.8849093 1.1702785 977 306
-0.51933217 -1.8940684 1.2174881 858 307
-0.73429406 -2.6066947 1.6681868 423 308
-0.71128494 -2.532146 1.6848069 493 309
-0.68463957 -2.4454811 1.6915003 503 310
-0.66186774 -2.3715787 1.7033719 505 311
-0.63897616 -2.2972126 1.7124662 570 312
-0.61598933 -2.2224612 1.7187554 582 313
-0.59482759 -2.1537037 1.7267683 623 314
-0.57450706 -2.0876806 1.7344909 696 315
-0.55893624 -2.0374045 1.7522259 687 316
-0.53997332 -1.9757922 1.7594225 689 317
-0.51508379 -1.8943659 1.7479681 839 318
-0.49603751 -1.8323441 1.7499964 818 319
-0.48063925 -1.7824422 1.7606722 879 320
-0.46402571 -1.7284371 1.7660103 897 321
-0.44816411 -1.6768975 1.7718916 921 322
-0.43427363 -1.6319107 1.7825904 1018 323
-0.41982585 -1.5850199 1.7900181 1039 324
-0.4042632 -1.5343487 1.7919254 1041 325
-0.39020649 -1.4886851 1.7975667 1069 326
-0.37643272 -1.4439319 1.8027689 1111 327
-0.36218572 -1.3975459 1.8045738 1131 328
-0.34916505 -1.3552468 1.8097539 1165 329
-0.33352587 -1.3040757 1.8022745 1192 330
-0.32108808 -1.2636579 1.8067653 1328 331
-0.308386 -1.2223099 1.8086805 1310 332
-0.29679191 -1.1846751 1.8144146 1347 333
-0.28607279 -1.1499773 1.8233472 1461 334
-0.27457854 -1.1126223 1.8273747 1357 335
-0.26392671 -1.0781013 1.8347139 1424 336
-0.25360575 -1.0446833 1.8429796 1479 337
-0.24227965 -1.0078106 1.8445423 1489 338
-0.23216942 -0.97506243 1.8521686 1530 339
-0.22139058 -0.94000024 1.8547403 1619 340
-0.21200264 -0.90968555 1.8653409 1624 341
-0.20067507 -0.87267756 1.8620088 1511 342
-0.19094777 -0.84114969 1.8685939 1565 343
-0.18111593 -0.8092398 1.8736297 1651 344
-0.17085558 -0.77581853 1.8743633 1664 345
-0.16055474 -0.74222195 1.8734696 1632 346
-0.15138015 -0.71252364 1.8811131 1702 347
-0.14189708 -0.68173015 1.8853855 1808 348
-0.132626 -0.65166116 1.8909211 1777 349
-0.12318144 -0.62096089 1.8939837 1741 350
-0.11351091 -0.58943206 1.8935924 1767 351
-0.10470321 -0.5609529 1.9021139 1760 352
-0.095110439 -0.5296452 1.9005113 1746 353
-0.085937172 -0.49981669 1.9031076 1823 354
-0.076916419 -0.47052166 1.9070702 1744 355
-0.067720138 -0.44056195 1.9075612 1841 356
-0.058837928 -0.4117409 1.9123632 1796 357
-0.04974588 -0.38211706 1.9127085 2033 358
-0.040913329 -0.35345519 1.9174128 1913 359
-0.40321609 0.13882954 0.20298292 235 0
-0.41694441 0.14081609 0.20922801 233 1
-0.43058571 0.14275084 0.21585549 232 2
-0.44314989 0.14445409 0.22280674 233 3
-0.43990618 0.14327423 0.22897539 233 4
-0.44835028 0.14419368 0.23607084 232 5
-0.44983104 0.14385283 0.24271719 233 6
-0.45415479 0.1440081 0.24974535 232 7
-0.4632625 0.14498776 0.25752813 233 8
-0.46249312 0.1442257 0.26417941 236 9
-0.461633 0.14344789 0.2708177 236 10
-0.46068224 0.14265446 0.2774418 235 11
-0.45867118 0.14168094 0.28387037 236 12
-0.45657462 0.14069548 0.29025522 236 13
-0.45246321 0.13937593 0.29618123 236 14
-0.4646374 0.14076258 0.30575418 235 15
-0.47088611 0.14113867 0.31427902 235 16
-0.46934408 0.14022398 0.32101819 237 17
-0.46770996 0.13929428 0.32773358 237 18
-0.46598402 0.13834976 0.33442387 237 19
-0.46416667 0.13739057 0.34108782 237 20
-0.46225819 0.13641691 0.34772414 237 21
-0.46025899 0.13542898 0.35433155 236 22
-0.4581694 0.13442695 0.36090881 237 23
-0.45598984 0.13341102 0.36745468 237 24
-0.46760216 0.13448629 0.37924761 237 25
-0.45136255 0.13133822 0.38044721 238 26
-0.46265435 0.13232429 0.392555 236 27
-0.44638056 0.12921216 0.39329925 237 28
-0.45734325 0.13010828 0.4057126 236 29
-0.45455271 0.12898056 0.41223213 237 30
-0.46598968 0.12988071 0.42555639 237 31
-0.46292982 0.128692 0.4321903 238 32
-0.45977908 0.12749046 0.43877923 238 33
-0.45653805 0.12627634 0.44532192 237 34
-0.44978774 0.1238113 0.45826352 235 36
-0.46000803 0.12438308 0.47267315 237 37
-0.45630491 0.12308331 0.47920784 237 38
-0.45251223 0.1217718 0.48568854 236 39
-0.4611918 0.12205023 0.50015473 237 40
-0.45711419 0.12067972 0.50669694 238 41
-0.45294684 0.11929795 0.51317984 240 42
-0.46173635 0.11949638 0.52872789 239 43
-0.44434601 0.1165016 0.52596319 238 44
-0.45271236 0.11659929 0.54174387 239 45
-0.45994526 0.1165144 0.55720866 240 46
-0.46763039 0.11643285 0.57354724 238 47
-0.46255302 0.1148693 0.58015525 237 48
-0.45738491 0.11329557 0.58669007 239 49
-0.46350515 0.11293826 0.60284746 239 50
-0.45802775 0.11130616 0.60938799 240 51
-0.46431622 0.11088935 0.62652409 237 52
-0.45851612 0.10919659 0.6330682 238 53
-0.46419182 0.10863529 0.65052599 238 54
-0.45806447 0.10688224 0.65706044 237 55
-0.46241 0.10611004 0.67411119 237 56
-0.45596084 0.10429986 0.68061292 239 57
-0.46038172 0.10345112 0.69863898 238 58
-0.45670354 0.1005325 0.72264135 241 60
-0.44959193 0.098607354 0.7290473 238 61
-0.46238688 0.098216772 0.75899106 240 62
-0.45478046 0.096192822 0.76546443 241 63
-0.45707291 0.094870046 0.78430873 240 64
-0.45894003 0.093452737 0.80331439 240 65
-0.45072886 0.091321558 0.80972493 240 66
-0.45131323 0.089723691 0.82809252 242 67
-0.45206523 0.088070236 0.84739548 240 68
-0.45180774 0.086292237 0.86600757 238 69
-0.45168906 0.084453329 0.88555413 238 70
-0.45057631 0.082495794 0.90437728 240 71
-0.44957367 0.080472186 0.92413294 240 72
-0.44811875 0.078355148 0.94398379 240 73
-0.4456948 0.076128617 0.963063 237 74
-0.45087051 0.074031398 0.9960404 241 75
-0.44787747 0.071596488 1.016217 239 76
-0.44394132 0.069061562 1.0355723 238 77
-0.44749644 0.0665268 1.0699968 239 78
-0.44246858 0.063772261 1.0895185 238 79
-0.44407502 0.060923453 1.1234019 237 80
-0.44484264 0.057899754 1.157479 239 81
-0.44518432 0.054695558 1.1926415 238 82
-0.44424635 0.051321138 1.2270609 236 83
-0.44245452 0.047773834 1.2616227 236 84
-0.4459008 0.043819685 1.3111001 235 85
-0.44218752 0.039884072 1.3459741 235 86
-0.43760693 0.035778213 1.3809351 234 87
-0.43764645 0.031133469 1.4309889 231 88
-0.43607363 0.026256803 1.4802942 231 89
-0.43355641 0.021100577 1.5307076 231 90
-0.43431702 0.015216935 1.5955418 230 91
-0.42901498 0.0095105432 1.6462721 228 92
-0.43105254 0.0024035908 1.7268374 227 93
-0.42672247 -0.0044877641 1.7922722 226 94
-0.42068776 -0.011709813 1.8578358 226 95
-0.41677555 -0.019985881 1.9390101 237 96
-0.3727051 -0.030658621 1.9651792 237 98
-0.34864104 -0.035606261 1.9699996 236 99
-0.32152385 -0.039634768 1.9587884 236 100
-0.29494241 -0.043616157 1.948148 234 101
-0.27109972 -0.048421826 1.9518861 235 102
-0.24720266 -0.053206529 1.9552895 235 103
-0.22325593 -0.057969358 1.9583575 237 104
-0.19926402 -0.062709391 1.9610894 236 105
-0.17353585 -0.066268027 1.9476171 238 106
-0.14968345 -0.070917666 1.949657 236 107
-0.12579986 -0.075542048 1.9513624 235 108
