# .PCD v0.7 - Point Cloud Data file format
VERSION 0.7
FIELDS x y z intensity index
SIZE 4 4 4 4 4
TYPE F F F F F
COUNT 1 1 1 1 1
WIDTH 1149
HEIGHT 1
VIEWPOINT 0 0 0 1 0 0 0
POINTS 1149
DATA ascii
1.8752668 -1.3944124 1.7665232 226 47
1.8232869 -1.3631312 1.7714566 227 48
1.7616433 -1.3249913 1.7662379 227 49
1.7104524 -1.2939194 1.7682786 226 50
1.6700503 -1.2702261 1.7786976 228 51
1.6195039 -1.2393118 1.7782319 227 52
1.5795374 -1.2156829 1.7865113 227 53
1.5397508 -1.1920724 1.7938178 227 54
1.5001595 -1.1684898 1.8001572 227 55
1.4510016 -1.1379775 1.7949595 226 56
1.4119791 -1.1145465 1.7992207 228 57
1.3731983 -1.0911741 1.802537 227 58
1.3346739 -1.06787 1.8049165 228 59
1.2964201 -1.0446436 1.8063666 230 60
1.2584515 -1.0215048 1.8068955 229 61
1.2291712 -1.0046048 1.817323 229 62
1.19168 -0.98159951 1.8161768 228 63
1.154514 -0.95870811 1.814133 230 64
1.1256658 -0.94187164 1.8224328 228 65
1.0890516 -0.91916364 1.8187577 231 66
1.0604992 -0.902381 1.8257121 231 67
1.0325423 -0.88597882 1.8328435 231 68
0.99676204 -0.86356163 1.826851 232 69
0.96864676 -0.84686667 1.831902 231 70
0.94112456 -0.83055413 1.8371685 230 71
0.91324502 -0.81389385 1.8410609 232 72
0.88550043 -0.79726154 1.8443757 231 73
0.85834378 -0.78101212 1.8479426 234 74
0.83088392 -0.76444691 1.8501239 233 75
0.80400729 -0.74826396 1.8525813 233 76
0.7768634 -0.73178661 1.8536469 232 77
0.7502979 -0.71569073 1.8550129 234 78
0.71721476 -0.69418335 1.8411952 232 79
0.69689435 -0.68301815 1.8544074 234 80
0.67085695 -0.66709369 1.8541694 232 81
0.6504181 -0.65578598 1.8666381 234 82
0.62424314 -0.63960528 1.8645728 233 83
0.59862602 -0.62380016 1.8628775 232 84
0.57813942 -0.6123535 1.8741812 233 85
0.55245435 -0.59633487 1.8706603 235 86
0.52731407 -0.58068693 1.8675427 234 87
0.50682729 -0.56913155 1.8776938 234 88
0.48168805 -0.55331272 1.8727561 236 89
0.46117458 -0.54167169 1.8821713 235 90
0.43637681 -0.52597678 1.876335 235 91
0.41585585 -0.51426214 1.8850182 234 92
0.39166099 -0.49894094 1.8792412 232 93
0.37114012 -0.48715833 1.8872017 235 94
0.34708038 -0.47174972 1.879621 235 95
0.32658952 -0.45991737 1.8868597 234 96
0.30602843 -0.44801122 1.8937705 232 97
0.28267583 -0.43300861 1.8859153 233 98
0.26215997 -0.42106301 1.892114 235 99
0.2415863 -0.40905112 1.8979843 234 100
0.22095865 -0.39697516 1.9035245 234 101
0.19811946 -0.38204658 1.893128 237 102
0.17758334 -0.36995989 1.8979615 235 103
0.15700561 -0.3578167 1.9024647 238 104
0.1348919 -0.34331456 1.8918916 236 105
0.11441951 -0.3311702 1.8956999 236 106
0.093917675 -0.31897682 1.8991787 235 107
0.073390312 -0.30673674 1.9023275 236 108
0.052841395 -0.29445234 1.9051455 236 109
0.032274857 -0.28212595 1.9076325 237 110
0.011694659 -0.26975995 1.9097875 236 111
-0.0088952295 -0.25735673 1.9116106 236 112
-0.029490858 -0.24491867 1.9131011 236 113
-0.05008826 -0.23244816 1.9142588 235 114
-0.070683472 -0.21994761 1.9150836 237 115
-0.091272533 -0.20741943 1.9155753 234 116
-0.11185149 -0.194866 1.9157336 237 117
-0.13241638 -0.18228976 1.9155587 235 118
-0.15394926 -0.17049947 1.9299963 236 119
-0.17465127 -0.157776 1.9291477 238 120
-0.19532716 -0.14503682 1.9279633 236 121
-0.2159729 -0.13228443 1.9264432 236 122
-0.23839054 -0.11991607 1.9404806 237 123
-0.25915188 -0.107028 1.9382702 236 124
-0.3005434 -0.081236608 1.9328371 240 126
-0.32116556 -0.068338253 1.9296155 239 127
-0.34430283 -0.055264808 1.940835 238 128
-0.3649863 -0.042262651 1.9369091 238 129
-0.3887181 -0.028845526 1.9483348 236 130
-0.4094564 -0.015742488 1.9436938 237 131
-0.43012339 -0.002651073 1.938714 238 132
-0.43995726 0.0081625804 1.8877004 234 133
-0.44119188 0.016559534 1.8066026 233 134
-0.44460106 0.024810173 1.7411499 233 135
-0.44652775 0.032143675 1.6758215 235 136
-0.46336606 0.049204014 1.6039169 233 138
-0.46630648 0.055691294 1.5541369 233 139
-0.4678345 0.061393969 1.5035292 236 140
-0.46824074 0.066396989 1.4530756 237 141
-0.46753064 0.070701204 1.4028027 236 142
-0.47115842 0.076228984 1.3676583 238 143
-0.46875888 0.079379879 1.3186749 239 144
-0.47614625 0.085876711 1.2976114 238 145
-0.47154877 0.087737672 1.2480717 237 146
-0.47200069 0.091279231 1.2134213 240 147
-0.47801656 0.096838914 1.1934141 240 148
-0.47675636 0.099398844 1.1580846 240 149
-0.47515875 0.10165026 1.1238421 240 150
-0.47283483 0.10343944 1.0897975 238 151
-0.47675687 0.10769384 1.0700716 237 152
-0.47984323 0.11151811 1.0494938 241 153
-0.47568631 0.11214175 1.0159382 240 154
-0.4778083 0.1153579 0.99556351 237 155
-0.48000336 0.11853193 0.97610945 240 156
-0.48133284 0.12125137 0.9558695 236 157
-0.48276007 0.12394341 0.9365539 238 158
-0.48330742 0.12616909 0.91648459 240 159
-0.47575089 0.12460133 0.88415039 241 160
-0.47537702 0.12623316 0.86441278 237 161
-0.47515237 0.12786832 0.84560645 236 162
-0.4740237 0.12901598 0.82611459 240 163
-0.47306943 0.1301823 0.80755508 240 164
-0.48016316 0.13514352 0.80088258 240 165
-0.47806618 0.13567162 0.78169 238 166
-0.47560179 0.13595992 0.7626605 241 167
-0.47336066 0.13629705 0.74455988 237 168
-0.47970423 0.14080405 0.73784596 239 169
-0.48596302 0.14526933 0.7310254 240 170
-0.48234531 0.14481303 0.71242285 236 171
-0.47899762 0.14443496 0.69474012 237 172
-0.48474383 0.14858848 0.68790585 240 173
-0.48022535 0.14753902 0.66975999 238 174
-0.4760128 0.14659044 0.65252602 237 175
-0.48125878 0.15043619 0.64571553 237 176
-0.47586995 0.14880681 0.62808287 240 177
-0.4808251 0.1524761 0.6212604 239 178
-0.47490841 0.15049374 0.60395187 237 179
-0.46935618 0.14864975 0.58753735 238 180
-0.47383377 0.15201965 0.58079678 238 181
-0.4782277 0.15534565 0.57397974 237 182
-0.48253706 0.15862709 0.56708753 238 183
-0.46478406 0.15018296 0.54163957 236 184
-0.47945106 0.1589444 0.54372209 238 185
-0.47257096 0.15620667 0.52818537 239 186
-0.47633955 0.15915173 0.52135813 237 187
-0.48002398 0.1620515 0.51446587 239 188
-0.47177902 0.15848491 0.49887937 237 189
-0.4751994 0.16121772 0.49204791 236 190
-0.4552291 0.15117785 0.46916264 235 191
-0.48178762 0.16654569 0.47820801 236 192
-0.48495421 0.16913989 0.47120231 240 193
-0.47651392 0.16532916 0.45694095 239 194
-0.47943142 0.16776434 0.45000827 239 195
-0.48226416 0.1701526 0.44302428 240 196
-0.47248396 0.16551074 0.42889813 236 197
-0.46246842 0.1606923 0.41512093 236 198
-0.47757363 0.16992104 0.41508478 235 199
-0.47999212 0.17205536 0.40811056 237 200
-0.4823257 0.17414191 0.40109307 238 201
-0.47169706 0.1688894 0.38794833 238 202
-0.47379708 0.17082179 0.38105351 237 203
-0.47581336 0.17270657 0.37412059 238 204
-0.47774559 0.1745435 0.36715102 238 205
-0.47959334 0.17633218 0.36014608 238 206
-0.48135623 0.17807221 0.35310712 239 207
-0.47064593 0.17262501 0.34149906 237 208
-0.48462629 0.18140525 0.33893257 238 209
-0.47365835 0.17576906 0.32766014 236 210
-0.47503918 0.17726848 0.32069838 236 211
-0.47633606 0.17871913 0.31371021 238 212
-0.47754881 0.18012074 0.30669695 238 213
-0.47867709 0.18147302 0.29965997 238 214
-0.47972071 0.18277571 0.29260057 238 215
-0.48067954 0.1840286 0.28552017 238 216
-0.48155335 0.18523136 0.27842009 240 217
-0.46877018 0.17834869 0.26861039 238 218
-0.48304519 0.18748584 0.26416647 238 219
-0.47005075 0.18043602 0.25476134 240 220
-0.48419514 0.18953729 0.24985063 238 221
-0.47099948 0.18232581 0.24085732 238 222
-0.48500228 0.19138426 0.23548362 238 223
-0.47161555 0.18401659 0.22690901 239 224
-0.45898554 0.17706349 0.21883896 236 225
-0.4137989 0.15039757 0.20895728 236 226
-0.39928767 0.1421777 0.20213826 235 227
-0.39581484 0.14061776 0.19618508 237 228
-0.38885891 0.13692674 0.19027221 240 229
-0.38696298 0.1363036 0.18459785 239 230
-0.38329643 0.13459188 0.17899998 237 231
-0.38809058 0.13806 0.17326817 234 232
-0.39876539 0.14516047 0.16710396 234 233
-0.4076438 0.15118751 0.16068803 236 234
-0.41302979 0.15508497 0.15423657 237 235
-0.41239333 0.15526929 0.14815587 237 236
-0.41168493 0.1554091 0.14208195 238 237
-0.41006085 0.15497875 0.13612324 238 238
-0.40752697 0.15397793 0.13032211 238 239
-0.40409023 0.1524069 0.12472081 238 240
-0.39808318 0.14921528 0.11965822 239 241
-0.39760664 0.15006039 0.10760276 237 243
-0.4005768 0.15251565 0.10079828 236 244
-0.40675738 0.15701944 0.09306258 236 245
-0.40786964 0.15832675 0.086398758 239 246
-0.41135436 0.16115385 0.078983106 237 247
-0.40328404 0.15661624 0.074831806 237 248
-0.40496546 0.15830246 0.067836106 236 249
-0.39844555 0.15473333 0.063455582 236 250
-0.41125432 0.16359246 0.052459434 237 251
-0.41341951 0.16563046 0.044865727 238 252
-0.41946292 0.17019293 0.03561832 236 253
-0.41820341 0.1700435 0.029041514 237 254
-0.41765156 0.17035761 0.022132367 237 255
-0.41857833 0.17164254 0.014504552 237 256
-0.42251495 0.1749087 0.005358696 236 257
-0.42009893 0.17402887 -0.0009624213 237 258
-0.41837966 0.17360774 -0.0076354593 236 259
-0.41734201 0.17363951 -0.014697284 237 260
-0.41772947 0.17462069 -0.022597 237 261
-0.42101678 0.17753893 -0.032258675 238 262
-0.41815418 0.17638612 -0.038577467 237 263
-0.41521859 0.1751847 -0.044853553 238 264
-0.42399734 0.18183076 -0.058483422 235 265
-0.42082024 0.18049189 -0.064865798 235 266
-0.41756961 0.17910361 -0.071200415 236 267
-0.41424611 0.17766622 -0.077486053 236 268
-0.41085041 0.17617998 -0.083721533 235 269
-0.41795674 0.18184143 -0.097742155 234 270
-0.41431701 0.18021294 -0.10404952 234 271
-0.42166498 0.18611282 -0.11903416 231 272
-0.41776896 0.18433464 -0.125414 221 273
-0.41379997 0.18250629 -0.13173451 145 274
-0.042522434 -0.070608266 0.14797975 213 331
-0.042098716 -0.070859291 0.14789745 212 332
-0.041674346 -0.071111359 0.14782198 211 333
-0.041319817 -0.071228281 0.14676514 211 334
-0.040941164 -0.07136026 0.14571173 211 335
0.096424811 -0.11525304 -0.27873933 80 364
0.099201553 -0.11793789 -0.26824534 109 365
0.10416784 -0.12124613 -0.26532584 210 366
0.10845818 -0.12432685 -0.26044017 213 367
0.11168166 -0.12702721 -0.25267673 219 368
0.1130693 -0.12904961 -0.24020998 231 369
0.11660948 -0.1317708 -0.23427768 238 370
0.11896283 -0.13403253 -0.2255298 240 371
0.12370739 -0.13714847 -0.22321387 237 372
0.12842071 -0.14025271 -0.22081967 238 373
0.13310188 -0.14334464 -0.21834774 237 374
0.13775 -0.14642367 -0.21579854 230 375
0.62210023 -0.34348324 -1.2636299 226 376
0.63209093 -0.35185778 -1.2395133 232 377
0.65539277 -0.36570108 -1.2436305 231 378
0.67888856 -0.3797079 -1.2472693 231 379
0.70212072 -0.39368153 -1.2495522 229 380
0.72597307 -0.40799731 -1.2522228 231 381
0.7495271 -0.42225859 -1.2535394 231 382
0.76601958 -0.43345568 -1.2416079 230 383
0.7975533 -0.4514007 -1.2555484 230 384
0.82203025 -0.46628678 -1.2562155 230 385
0.84664905 -0.4813084 -1.2563647 229 386
0.87088311 -0.49622166 -1.2551703 230 387
0.89575291 -0.51149476 -1.2542764 229 388
0.92020357 -0.52663797 -1.2520452 229 389
0.95349282 -0.54602754 -1.2620344 231 390
0.97881985 -0.56174302 -1.2594109 230 391
1.0042393 -0.57756662 -1.2562389 231 392
1.0383455 -0.59765798 -1.2640748 231 393
1.0727891 -0.61803299 -1.2710888 226 394
1.0981028 -0.63404584 -1.265224 228 395
1.133644 -0.65516514 -1.2714524 229 396
1.1688921 -0.67625672 -1.2760775 228 397
1.2044246 -0.69760287 -1.2798425 230 398
1.2302403 -0.71417552 -1.2712897 227 399
1.2668023 -0.73623413 -1.2741671 227 400
1.302983 -0.7582109 -1.2754431 227 401
1.3491111 -0.7853772 -1.2861152 226 402
1.3760158 -0.80282784 -1.2753043 224 403
1.423448 -0.83092749 -1.2845242 224 404
1.5021455 -0.87539893 -1.3226398 224 405
1.539889 -0.89883596 -1.318547 224 406
1.5887353 -0.92818642 -1.3236598 222 407
1.6268631 -0.95205277 -1.3175038 222 408
1.6874648 -0.9878872 -1.3299959 224 409
1.7365984 -1.0178386 -1.3305938 222 410
1.798113 -1.0545282 -1.3399272 220 411
1.8478812 -1.0851321 -1.3377138 219 412
1.9210776 -1.1284564 -1.3523533 220 413
1.9839065 -1.1664305 -1.3565744 220 414
2.0345845 -1.1980213 -1.3497859 219 415
2.3708484 -1.3990703 -1.3956254 219 419
2.4474807 -1.4458914 -1.3954252 219 420
2.476676 -1.4667163 -1.3636535 212 421
2.662241 -1.5743165 -1.4244674 214 422
2.7159727 -1.609177 -1.4027746 214 423
2.7201517 -1.6165068 -1.3520814 211 424
2.7362895 -1.6304904 -1.308284 155 425
2.7646029 -1.6513159 -1.2707925 135 426
2.7669604 -1.6575578 -1.2198368 135 427
2.7317145 -1.6424978 -1.1512277 217 428
2.7454522 -1.6550443 -1.107126 223 429
2.7837834 -1.6815792 -1.0739696 211 430
2.6943042 -1.6398555 -0.93683112 219 432
2.6923811 -1.6432776 -0.8880564 228 433
2.7162063 -1.6614733 -0.84938252 225 434
2.7520113 -1.6866258 -0.81452698 217 435
2.6366606 -1.6329703 -0.63633168 224 438
2.6309361 -1.6338795 -0.58958817 229 439
2.6515093 -1.6501322 -0.55045813 228 440
2.6581581 -1.6582597 -0.5073055 223 441
2.7166262 -1.6968665 -0.47655451 193 442
4.3504987 -2.6714993 -0.72309661 211 444
4.384202 -2.6982629 -0.65752494 215 445
8.2302465 -4.9910183 -1.2535323 129 446
6.597096 -4.0305314 -0.86157095 214 447
6.5916061 -4.0374222 -0.75287795 148 448
7.367867 -4.5125132 -0.7422747 210 449
7.3594847 -4.5187912 -0.62134552 206 450
7.3633275 -4.5323882 -0.50196707 71 451
0.085724272 -0.0020411797 1.9660382 1872 0
0.063923486 -0.023586709 1.962491 1834 1
0.042297114 -0.045162644 1.961405 1929 2
0.02057229 -0.066377029 1.9547981 1837 3
-0.0010155812 -0.087410539 1.9476672 1812 4
-0.022474408 -0.10860372 1.9440032 1889 5
-0.043961845 -0.13019668 1.9447914 1860 6
-0.06531658 -0.15103245 1.9380906 1863 7
-0.08672028 -0.17220525 1.9348443 1964 8
-0.10799653 -0.19304173 1.9290954 1890 9
-0.129522 -0.21449645 1.9277678 1962 10
-0.15100917 -0.23578598 1.9249187 1844 11
-0.17277393 -0.25755447 1.92448 1753 12
-0.19471553 -0.27953559 1.9244657 1883 13
-0.21583509 -0.2999967 1.9160964 1833 14
-0.23747739 -0.32134384 1.9120742 1927 15
-0.25898656 -0.34243196 1.9065444 1830 16
-0.28077164 -0.36391231 1.9024042 1783 17
-0.30371177 -0.38706183 1.9044063 1749 18
-0.32473201 -0.40728447 1.8943696 1794 19
-0.3461943 -0.42814466 1.8866689 1718 20
-0.36958927 -0.45168033 1.8878371 1763 21
-0.39231956 -0.47418451 1.8846188 1737 22
-0.41379115 -0.49491304 1.8752267 1760 23
-0.43729299 -0.51832235 1.8735938 1745 24
-0.46043208 -0.54116136 1.8694792 1671 25
-0.48364443 -0.56402117 1.8647345 1640 26
-0.50692135 -0.58689308 1.8593563 1683 27
-0.52857548 -0.60763973 1.8479887 1655 28
-0.55450886 -0.63373381 1.8493389 1659 29
-0.58280015 -0.66263533 1.8560313 1580 30
-0.60708827 -0.68643761 1.8496617 1489 31
-0.63241357 -0.71143621 1.8451805 1586 32
-0.65819383 -0.7368995 1.8408034 1449 33
-0.68618244 -0.7649312 1.8406988 1380 34
-0.7090646 -0.78673404 1.8272413 1496 35
-0.7366423 -0.8140803 1.8238504 1406 36
-0.76213306 -0.83885777 1.8147266 1379 37
-0.79232979 -0.86908829 1.8144604 1362 38
-0.8164264 -0.89206946 1.8005427 1339 39
-0.84455168 -0.9196803 1.7937453 1244 40
-0.87532109 -0.95024997 1.790664 1297 41
-0.91275841 -0.98836011 1.7979045 1092 42
-0.94413024 -1.0193453 1.7925683 1155 43
-0.97301513 -1.0473834 1.7817681 1208 44
-1.0033448 -1.0769726 1.7722083 630 45
-1.0057673 -1.0749681 1.7190444 524 46
-1.0095643 -1.0746709 1.6698415 550 47
-1.0153674 -1.0767578 1.625128 488 48
-1.0198866 -1.0775236 1.5799969 509 49
-1.0261197 -1.0803068 1.5384676 506 50
-1.0316457 -1.0823978 1.497137 533 51
-1.0369896 -1.0843779 1.4566593 504 52
-1.0416541 -1.0856949 1.416396 536 53
-1.0359885 -1.0757738 1.3654703 469 54
-1.0402564 -1.0768541 1.327132 594 55
-1.040031 -1.0731144 1.2849743 641 56
-1.0441157 -1.0741519 1.2483258 501 57
-1.0419419 -1.0684788 1.2063946 570 58
-1.0401913 -1.0633618 1.166044 573 59
-1.0435719 -1.0638578 1.1313607 651 60
-1.0505354 -1.0682539 1.1004035 671 61
-1.0564651 -1.0715733 1.0689582 659 62
-1.0547196 -1.0667332 1.0318706 765 63
-1.0554144 -1.0645646 0.99750066 802 64
-1.0592663 -1.0658042 0.96607578 736 65
-1.0527347 -1.0560811 0.92793047 835 66
-1.0568447 -1.0576891 0.89782286 703 67
-1.0542123 -1.0522193 0.86383855 820 68
-1.0593424 -1.0549712 0.83519626 891 69
-1.0666618 -1.0600383 0.80801082 802 70
-1.067809 -1.0586518 0.77758753 847 71
-1.0685266 -1.0568506 0.74735212 816 72
-1.0701338 -1.0560094 0.71794403 760 73
-1.0680277 -1.0513363 0.6871931 756 74
-1.0721415 -1.0531553 0.65957165 720 75
-1.0745596 -1.0532315 0.63142025 842 76
-1.0745853 -1.0508552 0.60260206 867 77
-1.0742209 -1.0481035 0.57396948 1019 78
-1.0761956 -1.0477824 0.54638565 1178 79
-1.0750757 -1.0443017 0.51808602 1182 80
-1.0749519 -1.0418668 0.49035963 1033 81
-1.0799876 -1.0447216 0.46408468 1139 82
-1.0805469 -1.0430101 0.436831 1133 83
-1.0835381 -1.0437865 0.41019183 1089 84
-1.0882924 -1.0463547 0.38385808 1211 85
-1.0885313 -1.0443425 0.35684657 1156 86
-1.0912337 -1.0448315 0.33023235 1197 87
-1.087986 -1.0393178 0.30311823 1088 88
-1.0907263 -1.0398545 0.27662152 1110 89
-1.0924363 -1.0393528 0.25004783 1212 90
-1.088169 -1.0328578 0.2234166 1092 91
-1.0934588 -1.0359471 0.19689927 1162 92
-1.092061 -1.0323414 0.17043927 1042 93
-1.093164 -1.031235 0.14391156 1190 94
-0.82431817 -0.7617051 0.14168106 546 95
-0.550322 -0.48816586 0.15325484 3195 96
-0.55003005 -0.4867813 0.14015396 2778 97
-0.54886889 -0.4845376 0.1271916 2573 98
-0.5489583 -0.48352957 0.11402418 3522 99
-0.58975369 -0.52257568 0.092130125 737 100
-0.54090679 -0.4734211 0.089525193 496 101
-0.50682515 -0.43893367 0.085414559 233 102
-0.94361359 -0.861112 -0.099578351 1251 105
-0.94261438 -0.85817212 -0.12283823 1336 106
-0.80749232 -0.7235046 -0.11438078 723 108
-0.81165195 -0.72579986 -0.13684013 73 109
-0.029123766 0.038914096 0.094281286 841 176
-0.027739469 0.040398739 0.09310817 2280 177
-0.026409803 0.04190886 0.090972826 333 178
-0.024605816 0.043392539 0.094855733 1298 179
-0.02307174 0.044851854 0.095786765 3151 180
-0.021605914 0.046322912 0.095756546 2845 181
-0.020238649 0.047941826 0.092767894 9458 182
0.31106675 0.41274816 -0.30178252 160 225
0.45247245 0.5491482 -0.23858437 138 238
0.7123962 0.80252963 -0.15431514 507 252
0.72944051 0.81854278 -0.14156497 152 253
0.72457725 0.81173086 -0.11829522 1210 254
0.76133013 0.84811985 -0.1131117 74 255
0.80967587 0.89448136 -0.088231742 1108 257
0.85820884 0.94262433 -0.082474202 59 258
1.4962225 1.5965257 -0.25889465 661 259
1.5746015 1.6735954 -0.24144396 282 260
1.4860795 1.5795195 -0.1767804 158 261
1.4811991 1.5712875 -0.13668001 147 262
1.4778544 1.5646673 -0.097456872 208 263
1.4872015 1.5709937 -0.061008543 172 264
1.5121616 1.5931489 -0.026802525 73 265
1.3311175 1.4065535 0.035771355 168 266
1.5659369 1.6410968 0.044305876 939 267
0.25302252 0.31341282 0.19230472 8 268
2.0041001 2.0756092 0.097846933 78 269
2.2894313 2.3580806 0.13850242 575 270
2.2902739 2.3541763 0.19546932 646 271
2.2875812 2.3467426 0.2522912 606 272
2.2884231 2.3428564 0.30903164 644 273
2.2885623 2.3382716 0.3657085 606 274
2.277384 2.3224349 0.42134738 623 275
2.2472911 2.2832329 0.52996278 664 277
2.2594938 2.2906435 0.58772814 681 278
2.2427473 2.2694468 0.64074618 694 279
2.2436709 2.2656953 0.69685388 696 280
2.2375619 2.2550187 0.75151312 641 281
2.2342839 2.247124 0.80682933 699 282
2.2289138 2.2371764 0.86162996 677 283
2.2291453 2.2326925 0.91820335 638 284
2.2279606 2.2268021 0.9746325 651 285
2.2302208 2.2242334 1.0326173 680 286
2.2144427 2.2041361 1.0840863 656 287
2.2193935 2.204119 1.143796 659 288
2.2064054 2.1867287 1.1963172 630 289
2.2064228 2.1818748 1.2547628 643 290
2.2043068 2.1749246 1.3127149 644 291
2.1987221 2.1646087 1.3693498 648 292
2.1950841 2.1561251 1.4274005 650 293
2.1920075 2.1481357 1.4862722 593 294
2.1861448 2.1374474 1.5440367 670 295
2.190058 2.1359992 1.6084446 611 296
2.1806071 2.1218085 1.6650999 602 297
2.1821029 2.1179256 1.7296597 643 298
2.1781499 2.1088231 1.7913542 583 299
2.1509316 2.0777977 1.836426 499 300
2.1752367 2.095093 1.9210584 552 301
2.1717277 2.08618 1.9858164 591 302
2.1635303 2.0728142 2.0476398 514 303
2.159384 2.0631478 2.1137786 532 304
2.1542487 2.0524721 2.1801307 523 305
2.1565819 2.0486012 2.2546165 496 306
2.1475577 2.0341301 2.319761 516 307
2.1393321 2.0203068 2.3867323 456 308
2.0634339 1.9444742 2.3842583 311 309
1.9736729 1.8563079 2.3631315 303 310
1.8906083 1.7746277 2.3446751 249 311
1.8152096 1.7002592 2.3306398 359 312
1.7367125 1.6234256 2.3089359 381 313
1.669572 1.557162 2.2969232 414 314
1.6020586 1.4908592 2.2808995 477 315
1.5390522 1.4288826 2.2671416 484 316
1.4893252 1.3789847 2.2680862 512 317
1.4075043 1.300898 2.2214682 578 318
1.3519669 1.2464036 2.2077198 536 319
1.3010819 1.1962444 2.1978819 622 320
1.2512504 1.1472329 2.1869354 703 321
1.2077566 1.1039501 2.1834354 759 322
1.1613567 1.0583402 2.1729269 713 323
1.1205784 1.0177726 2.1694939 823 324
1.0806177 0.97807324 2.1654663 814 325
1.0419109 0.93960786 2.1617093 864 326
0.99966109 0.8983196 2.149235 860 327
0.96219164 0.86124647 2.143647 903 328
0.92592341 0.82533944 2.1385071 1000 329
0.88114595 0.78256953 2.1134262 980 330
0.8470093 0.7487945 2.1083283 1071 331
0.8132056 0.71544373 2.102143 1064 332
0.78049594 0.68313175 2.0966451 1115 333
0.74811107 0.65123016 2.0901275 1158 334
0.71711886 0.62058359 2.0852904 1252 335
0.68811762 0.59163421 2.0840237 1191 336
0.65931356 0.56295347 2.0819042 1214 337
0.62912911 0.53334183 2.0743601 1296 338
0.60050553 0.50506097 2.069612 1270 339
0.57273066 0.47754464 2.0658934 1334 340
0.54461139 0.44990528 2.0595105 1431 341
0.51458836 0.4210538 2.0447876 1394 342
0.48844412 0.39513487 2.0415032 1512 343
0.46349126 0.37015194 2.0413096 1427 344
0.43626025 0.343741 2.0308652 1500 345
0.41119546 0.31892157 2.027364 1509 346
0.38651985 0.29446748 2.0241578 1546 347
0.36241078 0.27047366 2.0222394 1569 348
0.33689052 0.24576889 2.0118883 1633 349
0.31348714 0.22242588 2.0106437 1687 350
0.29000685 0.19913782 2.0078151 1642 351
0.26633799 0.17587529 2.002414 1653 352
0.24327883 0.15302718 1.9993691 1682 353
0.22033417 0.13034248 1.9957403 1728 354
0.19679579 0.10760733 1.9855803 1769 355
0.1741761 0.085344955 1.9807905 1763 356
0.1522631 0.06333974 1.9814094 1804 357
0.12976933 0.041379441 1.9745089 1846 358
0.10808506 0.019528128 1.9760308 1731 359
9.3628702 -5.8812351 1.3583398 38 11
8.7623882 -5.5263348 1.4289262 67 12
8.2017965 -5.1941247 1.4866189 64 13
7.4342475 -4.7311063 1.490131 77 14
6.9165001 -4.4213777 1.516529 90 15
6.5172882 -4.1840782 1.5509186 103 16
6.0810223 -3.9221153 1.5641153 116 17
5.7110982 -3.7004144 1.57924 148 18
5.3550134 -3.4861586 1.5859568 190 19
5.0259805 -3.2877908 1.5885572 197 20
4.8008537 -3.1543055 1.6110449 210 21
4.5765514 -3.0205665 1.6265862 212 22
4.3402085 -2.8783445 1.6309066 211 23
4.1551294 -2.7681689 1.6453636 213 24
2.8998287 -2.0175235 1.7121817 219 33
2.8196921 -1.9709153 1.7285782 219 34
2.7164741 -1.9087076 1.7295846 221 35
2.6043139 -1.8462446 1.7781488 223 37
2.5261886 -1.799971 1.7864097 222 38
2.4477754 -1.7532349 1.7920035 220 39
2.3582625 -1.6987197 1.7876318 223 40
2.2924612 -1.6599616 1.7965877 223 41
2.2156334 -1.6134717 1.7956065 220 42
2.1506834 -1.57482 1.8007951 223 43
2.074985 -1.5285664 1.7956929 227 44
2.0213766 -1.4972429 1.8053267 223 45
1.9577763 -1.4588342 1.8052268 228 46
1.8946812 -1.420543 1.8033936 224 47
1.8421581 -1.3893868 1.8085154 225 48
1.7899717 -1.3582857 1.8122675 226 49
1.7387981 -1.327714 1.8152603 224 50
1.6873434 -1.2967627 1.816314 225 51
1.636291 -1.2659097 1.8160288 224 52
1.5957501 -1.2423546 1.8245454 227 53
1.5553939 -1.2188056 1.832085 226 54
1.5054123 -1.1882083 1.8281873 226 55
1.4656056 -1.1647637 1.8336266 227 56
1.4164745 -1.1344188 1.8273147 226 57
1.3772845 -1.1111233 1.830689 226 58
1.3383579 -1.0878853 1.8331243 225 59
1.2997092 -1.0647143 1.8346287 227 60
1.2613525 -1.0416198 1.8352101 228 61
1.231601 -1.024796 1.8457351 230 62
1.193734 -1.0018156 1.8446374 227 63
1.1561996 -0.9789387 1.8426405 229 64
1.1190114 -0.95617449 1.8397537 229 65
1.0899237 -0.93943977 1.8473965 229 66
1.0533249 -0.91685653 1.8428913 231 67
1.0171109 -0.89441216 1.8375232 230 68
0.98860103 -0.87780321 1.8431033 231 69
0.95304734 -0.85558784 1.8361661 230 70
0.92539299 -0.83944166 1.8412492 230 71
0.89739466 -0.82293904 1.8449569 232 72
0.86953789 -0.80645943 1.8480885 232 73
0.8488239 -0.79566181 1.8638827 231 74
0.82793897 -0.78472602 1.8793533 231 75
0.80064046 -0.76851654 1.8818644 234 76
0.7669965 -0.74694681 1.8702364 233 77
0.74610662 -0.73586559 1.8843912 234 78
0.71890724 -0.71944547 1.8844017 235 79
0.69227618 -0.70340335 1.8847351 234 80
0.66546184 -0.6870985 1.8836627 234 81
0.63885647 -0.67086184 1.8820536 233 82
0.61280924 -0.65500104 1.8808035 235 83
0.59192675 -0.64365602 1.8924781 233 84
0.56580478 -0.62755179 1.8893951 235 85
0.51933819 -0.60034359 1.8972116 235 87
0.49375656 -0.58441019 1.8926923 236 88
0.46870628 -0.56884348 1.8885972 233 89
0.44785565 -0.55726695 1.8979523 234 90
0.42286903 -0.54154193 1.8920374 234 91
0.39815709 -0.52593052 1.8856399 234 92
0.37395588 -0.51067799 1.8797098 235 93
0.3498005 -0.49530104 1.8723732 235 94
0.32924721 -0.48369536 1.879799 235 95
0.3086229 -0.47201148 1.8868984 235 96
0.28793162 -0.46025172 1.8936698 236 97
0.26459694 -0.4452984 1.8856688 234 98
0.24395855 -0.43349364 1.8917291 235 99
0.22326563 -0.42162043 1.8974606 235 100
0.20033115 -0.40667522 1.8873005 236 101
0.17972906 -0.39478037 1.892325 235 102
0.15908475 -0.38282451 1.8970209 236 103
0.13840219 -0.37080982 1.9013867 234 104
0.11633857 -0.35633099 1.8906777 235 105
0.095769003 -0.34430951 1.8943497 236 106
0.075173363 -0.33223668 1.8976923 235 107
0.054555628 -0.32011476 1.9007049 237 108
0.033919763 -0.30794621 1.9033868 235 109
0.01326973 -0.29573327 1.9057379 236 110
-0.0073904954 -0.28347832 1.9077573 236 111
-0.028056942 -0.2711837 1.9094447 236 112
-0.048725631 -0.2588518 1.9107999 237 113
-0.069392584 -0.24648499 1.9118224 236 114
-0.090053827 -0.23408565 1.9125124 236 115
-0.11070539 -0.22165616 1.9128697 237 116
-0.13134329 -0.20919889 1.9128938 238 117
-0.15196356 -0.19671628 1.912585 237 118
-0.17256224 -0.1842107 1.9119434 235 119
-0.1944595 -0.17249864 1.9258883 235 120
-0.21518041 -0.1598461 1.9245701 235 121
-0.23586756 -0.14717768 1.9229168 234 122
-0.25651696 -0.13449582 1.9209285 237 123
-0.2792916 -0.12220864 1.9344532 238 124
-0.30004129 -0.10939133 1.9317724 237 125
-0.32074094 -0.096567839 1.9287547 238 126
-0.34138647 -0.083740667 1.9254013 238 127
-0.36470661 -0.070857584 1.9364614 237 128
-0.3854062 -0.057921648 1.9324038 237 129
-0.40603927 -0.044989467 1.9280095 239 130
-0.43007168 -0.031657279 1.9388934 239 131
-0.45074362 -0.018624172 1.9337831 238 132
-0.47493336 -0.005004406 1.9428858 238 133
-0.48004052 0.0051923245 1.8771132 232 134
-0.47945258 0.013608649 1.7960103 232 135
-0.48577657 0.022850916 1.7458553 231 136
-0.4861317 0.030243263 1.6794853 235 137
-0.48528406 0.036785021 1.6142658 235 138
-0.48757786 0.043661118 1.5634916 236 139
-0.48874184 0.049840868 1.512849 235 140
-0.48911107 0.055422112 1.4633039 237 141
-0.48804343 0.060217872 1.4130003 237 142
-0.48586354 0.064319223 1.3629086 236 143
-0.48837194 0.069625467 1.3278476 237 144
-0.49012569 0.074465588 1.2928842 238 145
-0.48499238 0.076716706 1.2434133 240 146
-0.48507971 0.080514222 1.2087872 239 147
-0.49090108 0.086195111 1.1887566 239 148
-0.48303789 0.086719543 1.1400125 239 149
-0.48730081 0.091537789 1.1192579 238 150
-0.48461092 0.093591213 1.0852554 239 151
-0.48833564 0.09797442 1.0655193 237 152
-0.49121329 0.10193768 1.0449375 241 153
-0.48669052 0.1028304 1.0114353 240 154
-0.48860332 0.10618851 0.99106288 237 155
-0.49059907 0.10949728 0.97160977 239 156
-0.49171856 0.11236131 0.95137715 237 157
-0.49294582 0.11519061 0.93206739 237 158
-0.49328279 0.11756325 0.91201031 237 159
-0.49322832 0.11968815 0.89205825 241 160
-0.49331906 0.12180057 0.87303257 238 161
-0.49250039 0.1234394 0.85330892 240 162
-0.49185213 0.12508085 0.83451301 240 163
-0.49028286 0.12623808 0.81505227 240 164
-0.48890924 0.12741309 0.79651958 240 165
-0.49586576 0.13235188 0.78968793 238 166
-0.49333313 0.13289276 0.7705484 239 167
-0.4999752 0.13765128 0.76362789 239 168
-0.4968538 0.13781451 0.74469352 237 169
-0.49398771 0.13803238 0.72667944 240 170
-0.49016348 0.13773128 0.7081151 240 171
-0.4866198 0.13750035 0.69046807 237 172
-0.49230984 0.14167826 0.68360174 238 173
-0.49791282 0.145814 0.67663896 239 174
-0.49297774 0.14478536 0.65860075 238 175
-0.48836964 0.14385626 0.64146727 236 176
-0.4934721 0.14768603 0.63453954 239 177
-0.48767659 0.14608026 0.6170342 239 178
-0.49248737 0.14973453 0.61010116 238 179
-0.49721098 0.15334505 0.60308588 237 180
-0.49069411 0.15125768 0.58600682 236 181
-0.49513116 0.15469381 0.57900417 237 182
-0.4888213 0.15262681 0.56289274 237 183
-0.48150823 0.14999023 0.54644698 238 184
-0.47462529 0.14751974 0.53086674 238 185
-0.48936608 0.15623015 0.53261584 237 186
-0.48212373 0.15352061 0.51723963 239 187
-0.48574564 0.15645471 0.51032877 238 188
-0.48928174 0.15934382 0.50335479 241 189
-0.48067093 0.15581013 0.4879598 240 190
-0.48394391 0.15853314 0.48105258 237 191
-0.48713139 0.16121078 0.47408795 236 192
-0.49023283 0.16384253 0.46706706 237 193
-0.48161846 0.16017693 0.45287186 241 194
-0.48447087 0.16265027 0.44592565 238 195
-0.48723775 0.16507749 0.43892872 239 196
-0.48991856 0.16745801 0.43188244 238 197
-0.47980252 0.16285391 0.41798216 237 198
-0.48223922 0.16507566 0.41104168 237 199
-0.47174224 0.1601862 0.3976534 237 200
-0.48685676 0.16937879 0.39703006 237 201
-0.48903668 0.17145938 0.3899616 238 202
-0.47809282 0.16624728 0.37706178 237 203
-0.4800415 0.16817439 0.37012118 238 204
-0.46957669 0.16315612 0.3581031 237 205
-0.47130603 0.16493735 0.35128713 239 206
-0.47295237 0.16667198 0.34443861 238 207
-0.48698577 0.17540699 0.34201109 239 208
-0.47599459 0.16999999 0.33064938 238 209
-0.47738999 0.1715928 0.32371128 237 210
-0.47870117 0.17313766 0.316746 238 211
-0.47992784 0.1746344 0.30975485 237 212
-0.48106995 0.17608267 0.3027392 237 213
-0.48212704 0.1774821 0.29570037 236 214
-0.48309904 0.17883256 0.28863972 237 215
-0.48398581 0.18013373 0.28155866 240 216
-0.48478705 0.1813854 0.27445847 237 217
-0.48550269 0.18258724 0.2673406 237 218
-0.48613256 0.1837391 0.26020634 239 219
-0.47300264 0.17681929 0.25089324 238 220
-0.48713452 0.18589187 0.24589424 238 221
-0.48750645 0.18689239 0.23871917 239 222
-0.48779225 0.1878421 0.23153324 239 223
-0.48799178 0.18874076 0.22433785 240 224
-0.48810515 0.18958828 0.21713439 238 225
-0.47441384 0.1821934 0.20907989 237 226
-0.4306348 0.1567338 0.20009752 236 227
-0.41336781 0.14704427 0.19329958 239 228
-0.40803531 0.14448334 0.18721084 237 229
-0.4103418 0.14651893 0.18126482 233 230
-0.41599366 0.1505902 0.17517111 237 231
-0.4138729 0.14996034 0.16915604 234 232
-0.40997797 0.14824361 0.16328649 237 233
-0.41539198 0.15220332 0.15689668 236 234
-0.41476166 0.15248008 0.15081885 237 235
-0.41405919 0.15271264 0.14474708 239 236
-0.41243759 0.1523788 0.13878149 238 237
-0.41074798 0.15200002 0.13285178 239 238
-0.40730476 0.15053119 0.12721184 237 239
-0.40212211 0.14797184 0.12194489 235 240
-0.40443906 0.15007393 0.11544249 234 241
-0.42171192 0.16154167 0.10583088 235 242
-0.42046529 0.16146111 0.099616587 235 243
-0.41914544 0.16133462 0.093418196 234 244
-0.41775256 0.1611622 0.087236911 235 245
-0.41628698 0.1609439 0.081073925 233 246
-0.41474894 0.16067976 0.074930415 234 247
-0.4139559 0.16089003 0.068559155 233 248
-0.41308364 0.16105299 0.062183045 234 249
-0.41294166 0.16168697 0.055528358 233 250
-0.41512907 0.16382393 0.047980085 232 251
-0.42121091 0.16848664 0.038818017 234 252
-0.41996029 0.16844174 0.032251894 239 253
-0.4186278 0.16834711 0.025688425 237 254
-0.4180015 0.16871522 0.018788323 237 255
-0.41885033 0.17005265 0.011160463 236 256
-0.42270127 0.17336872 0.0019961447 237 257
-0.42021182 0.17254715 -0.0043042749 236 258
-0.41841733 0.17218365 -0.010960862 236 259
-0.41730222 0.17227282 -0.018010378 237 260
-0.41760737 0.17331102 -0.025906414 237 261
-0.42080182 0.17628604 -0.035581917 236 262
-0.41786453 0.17519352 -0.041877106 237 263
-0.41485447 0.17405239 -0.048129126 238 264
-0.42351377 0.18075943 -0.061805457 230 265
-0.42026043 0.17948273 -0.068162128 232 266
-0.41693389 0.17815664 -0.074470595 228 267
-0.41353479 0.17678142 -0.080729648 228 268
-0.42068571 0.18260533 -0.094660774 218 269
0.80537248 -0.42984387 -1.2760539 106 383
0.84560454 -0.45123377 -1.3028657 129 384
0.8626008 -0.4629311 -1.2895871 174 385
0.88721716 -0.47792226 -1.2883912 212 386
0.90400404 -0.48956692 -1.2744313 213 387
0.92922211 -0.50493288 -1.2731286 215 388
0.95400268 -0.52017939 -1.2704878 219 389
0.97051746 -0.53177762 -1.2554384 223 390
1.0134207 -0.55535376 -1.276947 225 391
1.0299613 -0.56707066 -1.2609435 224 392
1.0643767 -0.58703995 -1.26842 226 393
1.0902414 -0.60316503 -1.2637085 228 394
1.1155638 -0.61910462 -1.2576834 226 395
1.1512694 -0.64001346 -1.2636756 227 396
1.1866647 -0.66090798 -1.2680675 228 397
1.2223358 -0.68206203 -1.2715979 228 398
1.2582686 -0.70346844 -1.2742577 228 399
1.2848271 -0.72044766 -1.2655206 228 400
1.330861 -0.74700618 -1.276929 230 401
1.3780026 -0.77428913 -1.2878233 228 402
1.4049894 -0.79178679 -1.2766836 226 403
1.452098 -0.81935441 -1.2847619 226 404
1.4894097 -0.84219563 -1.2818509 224 405
1.5378611 -0.87075567 -1.288249 225 406
1.5755817 -0.89406407 -1.2833008 224 407
1.6358404 -0.92894137 -1.2971998 223 408
1.6740084 -0.95276272 -1.2900062 222 409
1.7122632 -0.97674072 -1.2818507 223 410
1.7844502 -1.018333 -1.3002481 222 411
1.8456628 -1.0545127 -1.307429 219 412
0.97117764 -0.6037097 -0.59401065 212 413
0.96849865 -0.60469401 -0.56995434 217 414
0.9646998 -0.605039 -0.54555821 225 415
0.97253436 -0.6114682 -0.52984643 221 416
0.98017401 -0.61779451 -0.51399773 217 417
0.98761743 -0.624017 -0.49801493 214 418
1.0071431 -0.63669538 -0.48978531 212 419
2.4337537 -1.4042691 -1.3563999 214 420
2.4990127 -1.4446789 -1.3470559 221 421
2.5151024 -1.4587102 -1.3071337 224 422
2.5054998 -1.4587982 -1.2527163 223 423
2.5085733 -1.4656898 -1.2061515 223 424
2.5102232 -1.4717557 -1.1592739 226 425
2.499228 -1.4708314 -1.1064407 225 426
2.5124393 -1.4831431 -1.0663522 225 427
2.5130227 -1.4884752 -1.0203056 225 428
2.5121839 -1.4929723 -0.97404224 225 429
2.5107334 -1.4970795 -0.92796701 225 430
2.5094969 -1.5012574 -0.88243359 225 431
2.5068419 -1.5045949 -0.83675462 225 432
2.5044184 -1.5080136 -0.79161328 226 433
2.513859 -1.5180811 -0.75122833 226 434
2.5094838 -1.5203289 -0.70602041 225 435
2.5178969 -1.5297908 -0.66549599 225 436
2.4864249 -1.5165306 -0.61241525 223 437
2.5071869 -1.5329815 -0.57620496 93 438
0.02253619 0.013071215 1.9667883 1857 0
0.0045551043 -0.011641502 1.96267 1857 1
-0.013337729 -0.036311686 1.9600186 1951 2
-0.031189969 -0.060788058 1.9548405 1800 3
-0.049008422 -0.085406192 1.9531285 1878 4
-0.066708006 -0.10955958 1.9459059 1883 5
-0.084424295 -0.13392471 1.9421484 1923 6
-0.10206001 -0.15809558 1.9368749 1955 7
-0.11984452 -0.18266034 1.9350466 1850 8
-0.13713585 -0.20608191 1.924781 1912 9
-0.15485892 -0.23050456 1.9219072 1899 10
-0.17258377 -0.25490069 1.918501 1883 11
-0.19049211 -0.27962887 1.9165199 1820 12
-0.20770584 -0.30299252 1.9071672 1931 13
-0.22628263 -0.32890666 1.9099441 1861 14
-0.24388593 -0.35296458 1.9034215 1768 15
-0.26157698 -0.37716812 1.8973373 1921 16
-0.27995464 -0.40255535 1.8955075 1719 17
-0.29778013 -0.42693788 1.8892869 1756 18
-0.31558245 -0.45125878 1.882524 1645 19
-0.33456779 -0.47754925 1.8818051 1704 20
-0.35292345 -0.50272888 1.8767211 1797 21
-0.37033382 -0.5263133 1.866414 1707 22
-0.388872 -0.55173475 1.8611218 1774 23
-0.40912807 -0.57990456 1.8625537 1686 24
-0.42800525 -0.60577744 1.8569176 1679 25
-0.4457587 -0.62981331 1.8461623 1648 26
-0.46560106 -0.65715384 1.8428987 1659 27
-0.48503509 -0.6837945 1.837181 1679 28
-0.50632399 -0.71330571 1.8369417 1607 29
-0.52590561 -0.74007618 1.8298475 1554 30
-0.54856032 -0.77158666 1.8315388 1637 31
-0.57000649 -0.80114251 1.8281122 1482 32
-0.58892238 -0.82673484 1.8163328 1472 33
-0.60991395 -0.85548854 1.8097522 1479 34
-0.63346851 -0.88811326 1.8089861 1468 35
-0.6540134 -0.91607213 1.7991827 1446 36
-0.67555976 -0.9455111 1.7910551 1348 37
-0.69884968 -0.97754002 1.7860869 1377 38
-0.72019452 -1.0065676 1.7755342 1429 39
-0.74403685 -1.039309 1.7695813 1280 40
-0.76836491 -1.0727142 1.7634437 1317 41
-0.80022103 -1.1173184 1.7712524 1187 42
-0.82305986 -1.1483393 1.7592555 1161 43
-0.84669304 -1.1804929 1.74783 1176 44
-0.87351471 -1.2173272 1.7411599 1098 45
-0.90249145 -1.2572787 1.7368506 1074 46
-0.93086201 -1.2962463 1.7299075 1043 47
-0.95648903 -1.3310862 1.7170342 997 48
-0.98554462 -1.3709109 1.7083837 981 49
-1.0173243 -1.4146553 1.7023418 941 50
-1.041024 -1.4464617 1.6828403 1004 51
-1.0447174 -1.4489553 1.6345454 1012 52
-1.0432423 -1.4439685 1.5805039 1079 53
-1.0295678 -1.4212916 1.5122898 1089 54
-1.0249709 -1.4119685 1.4581219 1153 55
-1.022851 -1.4063361 1.4086543 1131 56
-1.0204986 -1.4004433 1.3603227 1108 57
-1.0174613 -1.3936324 1.312575 1231 58
-1.0166682 -1.3901365 1.2685496 1204 59
-1.0147862 -1.3851277 1.2244743 1314 60
-1.0137972 -1.3814648 1.1823709 1332 61
-1.0127524 -1.3777739 1.1411761 1326 62
-1.0071026 -1.3675201 1.0967416 1439 63
-1.0131522 -1.3741072 1.0636177 723 64
-1.0126183 -1.3712831 1.0253332 462 65
-1.0105581 -1.3663168 0.986579 392 66
-1.0148572 -1.3704728 0.95339137 419 67
-1.0166585 -1.371084 0.91871935 424 68
-1.0185915 -1.3719068 0.88458276 431 69
-1.0158142 -1.3660548 0.84782869 469 70
-1.019652 -1.3696336 0.8157922 537 71
-1.0193111 -1.3672985 0.78157604 536 72
-1.0240819 -1.3722284 0.75058538 600 73
-1.0229865 -1.3688667 0.71673036 501 74
-1.0254042 -1.3704927 0.68500048 598 75
-1.0263594 -1.370067 0.65283614 452 76
-1.0224569 -1.3628117 0.61897266 526 77
-1.0272183 -1.3677801 0.58892858 551 78
-1.0271271 -1.365927 0.55720699 564 79
-1.0301176 -1.3684155 0.5267241 543 80
-1.0287824 -1.3648418 0.49508697 581 81
-1.0322802 -1.3680534 0.4649685 609 82
-1.0279722 -1.3603462 0.43312842 534 83
-1.0348855 -1.3683405 0.4038558 445 84
-1.0380334 -1.3710667 0.37373134 496 85
-1.0949396 -1.4487194 0.35045046 549 86
-1.1179662 -1.4790262 0.3205471 1153 87
-1.1203165 -1.4805127 0.28796941 1281 88
-1.1153258 -1.4718007 0.25506762 1393 89
-1.1105736 -1.4634399 0.22254166 1345 90
-1.1154292 -1.4684108 0.19014651 1282 91
-1.1117625 -1.4615726 0.15793586 1239 92
-1.1077636 -1.4542879 0.12598631 1289 93
-1.1092894 -1.4546443 0.093657814 1386 94
-1.101124 -1.4416291 0.06257911 1413 95
-1.1031635 -1.4426955 0.030203387 1369 96
-1.1037019 -1.4416865 -0.0020558685 1344 97
-1.100993 -1.4362082 -0.033681482 1416 98
-1.0973787 -1.4294908 -0.06501098 1338 99
-1.094026 -1.4231371 -0.096321002 1433 100
-1.0938303 -1.4211099 -0.12858392 1333 101
-1.0904087 -1.4146622 -0.15986405 1427 102
-1.0889713 -1.4109265 -0.19187693 1327 103
-1.0826055 -1.4004601 -0.22197108 1335 104
-1.0833769 -1.3997291 -0.25506598 1416 105
-1.0820824 -1.3961698 -0.28747523 1327 106
-1.0827135 -1.3952178 -0.32105052 1268 107
-1.0778935 -1.3868475 -0.35202461 1298 108
-1.0761267 -1.382616 -0.38475186 1223 109
-1.0745655 -1.3786507 -0.4178322 1327 110
-1.0726433 -1.3741822 -0.45095021 1340 111
-1.0698051 -1.3684626 -0.48372418 1320 112
-1.0688069 -1.3652114 -0.51802462 1132 113
-1.0690584 -1.3636223 -0.55363047 1209 114
-1.0645603 -1.3556186 -0.58607322 1197 115
-1.0650887 -1.3543543 -0.62276936 1213 116
-0.72784585 -0.89732629 -0.42665201 535 119
-0.65924174 -0.80431575 -0.38747251 1268 120
-0.64935285 -0.78982878 -0.4016701 1204 121
-0.63730758 -0.77248895 -0.41333789 14 122
-0.63278598 -0.76517189 -0.43256408 20 123
-0.035438966 0.035248481 0.08197853 2306 177
-0.033410121 0.03730727 0.095849007 6312 178
-0.032557033 0.038983285 0.086792052 4329 179
-0.031118525 0.040707909 0.091759562 272 180
0.27195179 0.48175073 -0.28919506 421 227
0.27645183 0.48740685 -0.27845174 951 228
1.2113857 1.7825378 -0.25141305 741 258
1.1339031 1.671495 -0.18550281 449 259
1.2077836 1.7732238 -0.17206214 1135 260
1.1918635 1.7488047 -0.12906219 155 261
1.1915236 1.7462739 -0.091224566 168 262
1.1896278 1.7415819 -0.053317174 333 263
1.1971619 1.7500827 -0.01753138 200 264
1.2240654 1.7855991 0.015444115 76 265
1.4185816 2.0522852 0.071970746 9 267
1.3450847 1.9477216 0.12038913 744 268
1.6442224 2.36096 0.15010643 83 269
1.8593371 2.6566672 0.198284 615 270
1.8448614 2.6335468 0.25423408 697 271
1.8415055 2.6258671 0.3098321 685 272
1.8381639 2.6182191 0.36520427 682 273
1.8360101 2.6122217 0.42051604 667 274
1.8303651 2.6014142 0.47524863 700 275
1.8019482 2.5592515 0.5258339 94 276
1.814481 2.5735192 0.58303893 467 277
1.7925996 2.5404432 0.6332041 23 278
1.7517519 2.4352722 1.5247475 22 294
1.7529869 2.4335938 1.5870593 169 295
1.7443386 2.4185896 1.6423693 325 296
1.7468343 2.4185121 1.7073847 411 297
1.7469486 2.4151824 1.7714849 483 298
1.7336807 2.3939011 1.8244151 487 299
1.7292221 2.3843729 1.8858675 471 300
1.7008138 2.3428748 1.9244663 326 301
1.7181052 2.3622477 2.0091274 582 302
1.7114376 2.3496397 2.0708847 548 303
1.7060274 2.3386519 2.134912 581 304
1.7092371 2.3390222 2.2098978 569 305
1.7099687 2.3360155 2.2837861 512 306
1.6990598 2.3175523 2.3450558 532 307
1.6931474 2.3056252 2.4135466 543 308
1.6546931 2.2508378 2.4403291 329 309
1.5909792 2.1629868 2.430958 361 310
1.5173025 2.0623033 2.4034982 333 311
1.4509349 1.9714487 2.3816969 391 312
1.3885256 1.8860013 2.3614049 398 313
1.3317436 1.8081088 2.3457 397 314
1.2747705 1.7301739 2.3258972 511 315
1.2257951 1.6628156 2.3155596 495 316
1.1798795 1.5995854 2.3073406 528 317
1.1142371 1.5110823 2.2608104 528 318
1.0652254 1.444263 2.2396438 565 319
1.0256791 1.38978 2.2330027 659 320
0.98342478 1.331972 2.2184515 711 321
0.94823408 1.2833359 2.2153702 753 322
0.9096173 1.2304615 2.2028611 756 323
0.87847006 1.1872033 2.204 849 324
0.8461051 1.142502 2.2006285 847 325
0.81298727 1.0969625 2.193469 752 326
0.7812624 1.0532918 2.1874669 839 327
0.74753237 1.0072315 2.1742775 925 328
0.71459669 0.96230137 2.1605635 985 329
0.67927688 0.91456044 2.1377449 1019 330
0.65046209 0.87501907 2.1300259 1045 331
0.62377787 0.83820552 2.126476 1095 332
0.59587914 0.80000365 2.1174881 1178 333
0.57057887 0.76507288 2.1146111 1212 334
0.54603642 0.73114473 2.1126225 1189 335
0.51983297 0.69530779 2.1033797 1303 336
0.49675816 0.66331249 2.1032743 1256 337
0.47185338 0.62922531 2.0949728 1325 338
0.4481867 0.59670091 2.0895069 1278 339
0.42520279 0.56506622 2.0850914 1323 340
0.4028548 0.53425372 2.0817754 1427 341
0.37839237 0.50111794 2.0672657 1367 342
0.35670185 0.47124982 2.0633495 1449 343
0.33405066 0.44040185 2.0529575 1475 344
0.31366417 0.41215909 2.0524061 1467 345
0.29133773 0.38189399 2.0395792 1656 346
0.27221379 0.35515791 2.0435169 1600 347
0.25038525 0.32565975 2.0292854 1550 348
0.23058251 0.29836988 2.0261004 1610 349
0.21102923 0.27140623 2.0232787 1520 350
0.19134317 0.24439883 2.0178766 1603 351
0.17235896 0.2181289 2.0168087 1608 352
0.15293603 0.19155186 2.0102043 1672 353
0.13341087 0.16502772 2.0000234 1645 354
0.11419884 0.13891616 1.9902403 1809 355
0.095553413 0.1133509 1.9848579 1686 356
0.077032797 0.087989204 1.9789155 1833 357
0.058985852 0.062934093 1.9794099 1787 358
0.040700093 0.037903413 1.97337 1837 359
10.23923 -4.2410831 1.6387787 38 11
10.086758 -4.1921744 1.7713482 71 12
8.864954 -3.7068615 1.7157998 48 13
8.4712238 -3.5572312 1.7788525 77 14
7.7388339 -3.2676673 1.7616919 77 15
7.0228662 -2.9830239 1.7261057 58 16
6.9008107 -2.9418545 1.8080777 93 17
6.2452431 -2.6793842 1.7534701 168 18
5.9840646 -2.5791645 1.7837638 148 19
5.6271067 -2.4383712 1.7794336 187 20
5.4505582 -2.3721516 1.8181719 145 21
5.2335343 -2.2885294 1.8392056 67 22
4.8391714 -2.1297054 1.7951961 211 23
4.5973721 -2.0343077 1.7919503 212 24
4.4109545 -1.9617732 1.8015773 214 25
3.3305616 -1.5382912 1.8202158 218 32
3.2427862 -1.5052243 1.8377512 219 33
3.1685014 -1.477854 1.8599465 212 34
3.0558078 -1.4334689 1.8593453 213 35
2.9943027 -1.4113412 1.8841103 214 36
2.6376085 -1.2675236 1.8423384 218 39
2.5533657 -1.2344319 1.8429403 223 40
2.482188 -1.2069907 1.8496559 222 41
2.3990269 -1.1739784 1.8461165 224 42
2.3165197 -1.1410446 1.8404353 223 43
2.2589843 -1.1192352 1.850318 224 44
2.1889277 -1.0915835 1.8492334 223 45
2.132045 -1.0697855 1.8561804 228 46
2.0629556 -1.0422387 1.8517962 224 47
2.0068316 -1.0204976 1.8558502 226 48
1.9503373 -0.99844825 1.857959 226 49
1.8942327 -0.9764396 1.8587203 226 50
1.8392439 -0.95481098 1.8587753 226 51
1.7839801 -0.93291163 1.8568846 227 52
1.7401488 -0.91627121 1.8641057 228 53
1.696519 -0.899629 1.8703575 226 54
1.6424173 -0.87788808 1.8648908 226 55
1.5993842 -0.86130679 1.8690621 225 56
1.5566034 -0.84474576 1.8722866 226 57
1.5134505 -0.82790124 1.87387 227 58
1.4712317 -0.81140423 1.8752147 227 59
1.4293132 -0.79494822 1.8756367 228 60
1.3877097 -0.77853978 1.875144 228 61
1.3464371 -0.76218581 1.8737458 228 62
1.3055104 -0.745893 1.8714509 230 63
1.2736801 -0.73405528 1.8796456 229 64
1.2333379 -0.71785605 1.8757185 229 65
1.1933842 -0.70173705 1.8709214 231 66
1.1621091 -0.68994379 1.8770341 231 67
1.1314794 -0.67842078 1.8833431 230 68
1.1004115 -0.66661036 1.8882747 231 69
1.0616639 -0.65071487 1.8804741 230 70
1.031011 -0.63895965 1.8841116 231 71
1.000999 -0.62747705 1.8879963 231 72
0.97062838 -0.6157372 1.8904891 232 73
0.94089425 -0.60427034 1.8932531 231 74
0.91828907 -0.59662461 1.9081843 234 75
0.88823372 -0.58487749 1.9091053 233 76
0.85880584 -0.57340252 1.9103307 234 77
0.82911617 -0.56170702 1.9101484 235 78
0.7996276 -0.55004501 1.9094189 234 79
0.77075708 -0.53865445 1.90903 237 80
0.7416836 -0.52706623 1.9072291 234 81
0.71322089 -0.51574862 1.9057921 234 82
0.69057143 -0.5078038 1.917352 233 83
0.66199666 -0.49628854 1.9140768 235 84
0.63401943 -0.48504147 1.9111983 233 85
0.611341 -0.47698733 1.9215854 237 86
0.58332729 -0.46557271 1.9168735 237 87
0.55558252 -0.45422229 1.9116626 237 88
0.53293872 -0.44608459 1.920887 236 89
0.50584763 -0.43499434 1.9157124 236 90
0.47874454 -0.42378113 1.9091231 234 91
0.45220259 -0.41282818 1.9030061 236 92
0.42972428 -0.40462729 1.9106946 235 93
0.40331951 -0.39357743 1.9027718 235 94
0.38086951 -0.38532716 1.9097358 236 95
0.3551172 -0.37454376 1.9019301 233 96
0.33270305 -0.36624786 1.9081789 235 97
0.31021976 -0.35789713 1.9140975 234 98
0.28483731 -0.34707811 1.9041241 235 99
0.2624312 -0.33869839 1.9093317 236 100
0.23996934 -0.3302691 1.9142087 235 101
0.21745607 -0.32179189 1.9187543 237 102
0.19287486 -0.31115907 1.9072363 235 103
0.17047614 -0.30266839 1.9110816 234 104
0.14803928 -0.29413509 1.9145957 236 105
0.12556861 -0.28556076 1.9177783 237 106
0.10194238 -0.27526239 1.9057665 235 107
0.079609744 -0.26668501 1.9082627 233 108
0.057256378 -0.2580719 1.9104286 236 109
0.034886591 -0.24942471 1.912264 236 110
0.012504669 -0.24074505 1.9137682 236 111
-0.0098851267 -0.23203464 1.9149411 234 112
-0.032278486 -0.22329512 1.9157823 236 113
-0.054671131 -0.21452816 1.9162918 236 114
-0.07705877 -0.20573545 1.9164696 237 115
