# .PCD v0.7 - Point Cloud Data file format
VERSION 0.7
FIELDS x y z intensity index
SIZE 4 4 4 4 4
TYPE F F F F F
COUNT 1 1 1 1 1
WIDTH 1135
HEIGHT 1
VIEWPOINT 0 0 0 1 0 0 0
POINTS 1135
DATA ascii
-0.082110628 -0.013787464 0.15062304 103 394
-0.30155584 -0.54044938 -0.42493105 210 403
-0.2999112 -0.53801644 -0.40527308 214 404
-0.30692917 -0.55639744 -0.40809274 219 405
-0.3095482 -0.56420875 -0.3995012 218 406
-0.31633982 -0.58212417 -0.40093911 220 407
-0.32345733 -0.60088164 -0.40262514 220 408
-0.33061934 -0.61980116 -0.40386826 219 409
-0.33753297 -0.63816816 -0.40401947 219 410
-0.34477204 -0.65737998 -0.40437531 219 411
-0.35647619 -0.68758535 -0.41363287 220 412
-0.36829206 -0.71816492 -0.42210633 219 413
-0.37570515 -0.73800784 -0.42075729 218 414
-0.38283899 -0.75721282 -0.41834795 219 415
-0.4043521 -0.81200492 -0.4427349 224 416
-0.40238711 -0.80884248 -0.4218387 234 417
-0.39997643 -0.80452794 -0.40060896 236 418
-0.40243131 -0.81226349 -0.38836092 239 419
-0.40009844 -0.80807066 -0.36799395 241 420
-0.40239316 -0.81538469 -0.35570264 232 421
-0.39951614 -0.80976427 -0.3351413 241 422
-0.40165049 -0.81665349 -0.32283407 237 423
-0.40372154 -0.82338405 -0.31042868 237 424
-0.40084967 -0.81768405 -0.29081255 233 425
-0.41290683 -0.84955245 -0.29272693 231 426
-0.4148148 -0.85589653 -0.27984482 214 427
-1.6374635 -3.9621837 -1.743843 138 430
-1.6864302 -4.0933218 -1.7342546 211 431
-1.6886081 -4.1057153 -1.66734 217 432
-1.6900944 -4.1163044 -1.6000779 226 433
-1.6974673 -4.1486096 -1.4713514 223 435
-1.708877 -4.1845183 -1.4148743 212 436
-1.7038606 -4.1783223 -1.3425066 218 437
-1.6984617 -4.1710572 -1.2706563 227 438
-1.6978725 -4.1760893 -1.2037878 221 439
-1.7024894 -4.1945004 -1.141607 217 440
-1.7067947 -4.2121086 -1.0791721 212 441
-1.712584 -4.2464628 -0.88701159 155 444
-1.7044039 -4.231627 -0.81695324 225 445
-1.7071142 -4.2450385 -0.75406039 229 446
-1.704235 -4.2438879 -0.68814528 229 447
-1.7063136 -4.2556348 -0.62510717 229 448
-1.7080802 -4.2665677 -0.56191319 230 449
-1.7095343 -4.2766838 -0.49857539 231 450
-1.7106757 -4.2859821 -0.43510598 230 451
-1.7115042 -4.2944589 -0.37151688 231 452
-1.7120196 -4.3021154 -0.30782038 230 453
-1.7122219 -4.3089476 -0.24402849 230 454
0.17617026 -0.11652312 1.9441684 1903 0
0.14641467 -0.11162464 1.9487607 1853 1
0.11618473 -0.10602787 1.9448644 1872 2
0.086341351 -0.10096529 1.947404 1845 3
0.056411732 -0.095632672 1.9464256 1878 4
0.02655967 -0.09005861 1.9419252 1950 5
-0.0033626668 -0.085228667 1.9478685 1912 6
-0.033321705 -0.080064952 1.949293 1804 7
-0.062988833 -0.07448104 1.944208 1872 8
-0.092931315 -0.069243655 1.9445752 1916 9
-0.12353955 -0.064354882 1.9513708 1907 10
-0.15343551 -0.058903959 1.9486772 1814 11
-0.18427454 -0.053823192 1.9533824 1772 12
-0.21517737 -0.048618857 1.9565365 1823 13
-0.24496926 -0.042997468 1.9512371 1739 14
-0.27569807 -0.037600894 1.9513152 1792 15
-0.30650124 -0.032150794 1.9508346 1722 16
-0.33757865 -0.026682612 1.9507703 1718 17
-0.36874402 -0.021157604 1.9501346 1663 18
-0.40023017 -0.015604805 1.949894 1793 19
-0.43207666 -0.010016117 1.9500326 1724 20
-0.46404615 -0.004362423 1.9495721 1723 21
-0.49700594 0.0013013445 1.9513758 1117 22
-0.49615359 0.0086438693 1.8479433 786 23
-0.49809146 0.015136305 1.763018 811 24
-0.49795431 0.021097708 1.6803874 1023 25
-0.49764347 0.02652153 1.604757 1097 26
-0.49863273 0.031469766 1.5388471 1007 27
-0.49635029 0.036015648 1.4705515 1209 28
-0.49634266 0.040198784 1.4127846 1381 29
-0.48020315 0.04375292 1.3245493 1347 30
-0.47996479 0.047233362 1.275923 1264 31
-0.47821325 0.05042332 1.2276344 1530 32
-0.48009664 0.053520557 1.1894478 1658 33
-0.48034221 0.056376327 1.1506199 1958 34
-0.48388296 0.059225526 1.1198798 1860 35
-0.48191881 0.061655652 1.0815647 1755 36
-0.4803769 0.063950896 1.0461365 1988 37
-0.48318398 0.066379294 1.019425 2128 38
-0.48356473 0.068550989 0.99036866 2095 39
-0.48481297 0.070680395 0.96400166 2184 40
-0.48531359 0.072664872 0.93782085 2606 41
-0.47791183 0.073941529 0.90223259 2570 42
-0.48043841 0.075898491 0.88134855 2666 43
-0.48177928 0.077695161 0.85979962 2641 44
-0.47998893 0.079153217 0.83532602 2627 45
-0.48206729 0.080888838 0.81640971 2773 46
-0.48365223 0.082529701 0.79760408 2813 47
-0.48474848 0.084075779 0.77892095 3208 48
-0.48742455 0.085732862 0.76253963 3362 49
-0.48549497 0.086883783 0.74196804 3255 50
-0.48515594 0.088145956 0.72372085 3224 51
-0.48507333 0.089391381 0.70632714 3237 52
-0.48381704 0.090468109 0.6884138 3325 53
-0.47911859 0.091117188 0.66805029 3606 54
-0.48221767 0.092599638 0.65510643 3659 55
-0.48195285 0.093672454 0.63965338 3869 56
-0.48131549 0.0946697 0.62433952 3865 57
-0.48188972 0.095781446 0.61038542 4065 58
-0.47974265 0.096536204 0.59475499 4167 59
-0.48207635 0.097813517 0.58278531 4060 60
-0.4833352 0.098940596 0.57028109 4460 61
-0.48100626 0.099591523 0.55564284 4505 62
-0.48168612 0.10060295 0.54333007 4040 63
-0.48379397 0.10178459 0.53213322 4230 64
-0.48054028 0.10224159 0.51792753 4331 65
-0.4778229 0.10274236 0.50441933 4716 66
-0.48090494 0.10400862 0.49441874 4822 67
-0.47851831 0.10451488 0.48163748 4816 68
-0.47851413 0.10533154 0.47035331 5089 69
-0.4791736 0.10622823 0.45957494 4750 70
-0.47871703 0.1069549 0.44843495 5116 71
-0.47803473 0.10763562 0.43738186 5653 72
-0.47712976 0.10827054 0.4264203 5605 73
-0.47692639 0.10899547 0.41591907 5224 74
-0.47744572 0.10981731 0.40583378 5484 75
-0.47777402 0.11060274 0.39578778 5478 76
-0.47791296 0.11135176 0.38578469 5710 77
-0.47597742 0.11177596 0.37523091 5890 78
-0.47762948 0.11274073 0.36592185 5899 79
-0.47816324 0.11352904 0.35633451 5828 80
-0.47948003 0.11443532 0.34701914 5531 81
-0.47774935 0.11485665 0.33700219 6176 82
-0.47679663 0.11539213 0.32729763 6143 83
-0.47760254 0.11620331 0.31805539 5947 84
-0.47630417 0.1166705 0.30845454 6159 85
-0.47970068 0.1178986 0.29974389 6268 86
-0.47807032 0.11830275 0.29020777 5928 87
-0.47724795 0.11883381 0.28088042 5979 88
-0.48018175 0.1199894 0.27204782 6258 89
-0.47805709 0.12029612 0.2626569 6306 90
-0.47871637 0.12106913 0.25358567 6382 91
-0.47921902 0.12181547 0.24450216 6127 92
-0.47956496 0.12253496 0.23540919 6169 93
-0.47975403 0.12322736 0.22630949 6016 94
-0.48077112 0.12406509 0.2172132 6229 95
-0.48261565 0.12505159 0.20807084 6168 96
-0.47937977 0.12513994 0.19899784 5974 97
-0.48287481 0.12642647 0.18971954 5777 98
-0.48227513 0.12698467 0.18055832 5456 99
-0.48347944 0.1278708 0.17124787 6062 100
-0.49039352 0.12980698 0.16129908 2136 101
-0.41309524 0.11624543 0.1609161 96 102
-0.41202503 0.1166317 0.15298635 74 103
-0.41081858 0.11699268 0.14507498 127 104
-0.40656883 0.11678107 0.13768233 147 105
-0.40703246 0.11745526 0.12950018 228 106
-0.40542307 0.11773913 0.12167552 170 107
-0.40655509 0.11855012 0.11322711 123 108
-0.40752882 0.11933845 0.10470729 123 109
-0.40739211 0.11991833 0.096370079 93 110
-0.40426618 0.1199168 0.088804752 59 111
-0.40571815 0.12081797 0.079887882 74 112
-0.40980047 0.12225376 0.069974467 27 113
-0.4146013 0.12385255 0.059554622 20 114
-0.41732648 0.12505373 0.049586102 16 115
-0.243522 0.090765879 0.10111297 1782 117
-0.41324314 0.12831919 -0.0054037869 6 121
-0.40961772 0.12973845 -0.033795685 16 124
-0.1764643 0.082919016 0.046691999 341 133
0.016564602 0.045891684 0.089380473 822 176
0.018972587 0.045350045 0.091013707 2052 177
0.020972412 0.04509167 0.089727074 2810 178
0.023108672 0.044735104 0.089464828 6978 179
0.025329456 0.044289015 0.090233326 5176 180
2.3187726 -0.2701759 -1.1346873 59 245
2.4439673 -0.29087895 -1.1527255 140 246
2.5276625 -0.30626288 -1.1434754 107 247
2.6249166 -0.32371655 -1.1385596 96 248
2.7129321 -0.34011987 -1.1257224 90 249
2.8352392 -0.36156973 -1.1264416 89 250
2.953793 -0.38279384 -1.1211687 99 251
3.0947444 -0.40754136 -1.1216129 60 252
3.2063026 -0.42836353 -1.1049104 65 253
3.3503885 -0.45423809 -1.097403 65 254
3.5164092 -0.48373017 -1.0931906 60 255
3.6906409 -0.51487124 -1.0861437 39 256
3.9012239 -0.55195391 -1.0852938 25 257
3.9684007 -0.56764728 -1.0316834 91 258
3.955214 -0.57107365 -0.95237845 101 259
3.9586103 -0.57699126 -0.87892753 98 260
4.0333986 -0.63111728 -0.31322432 72 268
5.4031291 -1.0429819 2.0482924 40 294
5.0526423 -0.9799419 2.0286441 60 295
4.7772169 -0.93124914 2.0248883 69 296
4.5455656 -0.89081109 2.0288501 74 297
4.3325725 -0.85362899 2.0324774 102 298
4.1218743 -0.81637561 2.0295522 112 299
3.932323 -0.78300345 2.0288832 122 300
3.772428 -0.75539953 2.0358694 91 301
3.5864539 -0.72184074 2.0239429 173 302
2.8670411 -0.59289426 1.989825 299 307
2.7390482 -0.56947482 1.977154 341 308
2.6392934 -0.55205089 1.9787182 357 309
2.5395687 -0.53437579 1.976742 395 310
2.4463265 -0.51791924 1.9758544 437 311
2.3688254 -0.5048492 1.9835149 487 312
2.2817929 -0.4893721 1.981079 478 313
2.2024705 -0.47547314 1.9817159 529 314
2.1201038 -0.46064553 1.9769218 578 315
2.0423138 -0.44668636 1.9730098 614 316
1.9762708 -0.43535218 1.9768254 639 317
1.8863723 -0.41803253 1.9559077 687 318
1.8246332 -0.40736535 1.9584857 730 319
1.7640984 -0.39684168 1.9601222 750 320
1.7027267 -0.38595191 1.9587357 696 321
1.6412975 -0.3748816 1.9549963 852 322
1.5903705 -0.36633947 1.9606705 840 323
1.5365539 -0.35692719 1.9613446 894 324
1.4838476 -0.34766641 1.9614164 943 325
1.4322416 -0.33855912 1.960936 1002 326
1.386544 -0.33090702 1.966205 1002 327
1.3346392 -0.32145455 1.9616853 1069 328
1.2839053 -0.31217238 1.9566737 1136 329
1.2320862 -0.30243188 1.9479696 1148 330
1.185349 -0.29396781 1.9445524 1249 331
1.1471025 -0.28782001 1.952505 1215 332
1.1048101 -0.28041384 1.9529047 1234 333
1.0578352 -0.27149841 1.9438332 54 334
1.0266551 -0.26720962 1.9602998 24 335
0.98293269 -0.25903848 1.9536097 85 336
0.94571906 -0.25276455 1.9573148 57 337
0.90160233 -0.24419442 1.9460738 228 338
0.87227213 -0.24028489 1.9632859 124 339
0.82986343 -0.23201674 1.9520686 228 340
0.79999804 -0.22785768 1.9671348 86 341
0.76340514 -0.22135112 1.9661216 50 342
0.7303763 -0.21601754 1.9726514 71 343
0.70641375 -0.21398112 2.0026948 168 344
0.66204107 -0.2043395 1.9772831 58 345
0.60929602 -0.19110763 1.9226272 171 346
0.609878 -0.19887662 2.028466 205 347
0.55827963 -0.18565506 1.9711696 161 348
0.52992266 -0.1819022 1.9881828 1300 349
0.48814881 -0.17213523 1.9547335 1484 350
0.45586792 -0.16641843 1.9541574 1723 351
0.42332625 -0.16047117 1.9510326 1727 352
0.39243412 -0.15526304 1.9541084 1766 353
0.36047015 -0.14940095 1.9507579 1718 354
0.32924306 -0.14383827 1.9497521 1781 355
0.29756737 -0.1378701 1.9442374 1890 356
0.26737419 -0.1327631 1.947013 1758 357
0.23671842 -0.1272492 1.9452939 1834 358
0.206402 -0.12189838 1.9450027 1890 359
-0.81045884 -1.5749911 0.077594787 240 0
-0.81056058 -1.5764891 0.10192153 240 1
-0.81052101 -1.5776824 0.12626532 237 2
-0.81663966 -1.5921788 0.15027586 240 3
-0.81631452 -1.5927663 0.17484686 236 4
-0.81584686 -1.5930458 0.19942099 236 5
-0.81523687 -1.5930171 0.22399358 235 6
-0.8144846 -1.5926805 0.24855992 236 7
-0.8202824 -1.6065503 0.27385086 236 8
-0.8192367 -1.605589 0.29861125 237 9
-0.81804794 -1.6043173 0.3233512 237 10
-0.81671631 -1.6027352 0.34806597 237 11
-0.82147402 -1.6144029 0.37426636 236 12
-0.81984407 -1.6121831 0.39912248 236 13
-0.81807095 -1.6096513 0.42393905 236 14
-0.8227554 -1.621205 0.45098543 237 15
-0.82684964 -1.631494 0.47826385 236 16
-0.82461149 -1.6279711 0.50335538 234 17
-0.82222927 -1.6241331 0.52838737 234 18
-0.82622355 -1.6342498 0.55650014 235 19
-0.82353139 -1.6297458 0.58161515 234 20
-0.82716781 -1.6391152 0.61023247 235 21
-0.82416272 -1.6339376 0.63540876 234 22
-0.82703257 -1.6416606 0.66425604 236 23
-0.83010566 -1.6498536 0.69367778 235 24
-0.82661366 -1.6436303 0.71899778 234 25
-0.82891345 -1.6501585 0.7485708 233 26
-0.83140379 -1.65713 0.77873731 236 27
-0.83329225 -1.6627992 0.80889618 235 28
-0.83536172 -1.6688919 0.83965975 235 29
-0.83268976 -1.6660914 0.89637029 233 31
-0.83375925 -1.6700357 0.92741573 234 32
-0.82890666 -1.6608825 0.95298755 234 33
-0.82995397 -1.6648148 0.98471725 235 34
-0.83039981 -1.667438 1.0162951 233 35
-0.83099473 -1.6704173 1.0485132 233 36
-0.83098865 -1.6720865 1.0805372 234 37
-0.83699507 -1.6871686 1.1203146 233 38
-0.83648282 -1.6877749 1.1529474 231 39
-0.83609867 -1.6886927 1.186234 232 40
-0.83511531 -1.6882995 1.2192404 227 41
-1.1273193 -2.3434882 1.6595134 224 42
-1.1017957 -2.2889316 1.6719333 227 43
-1.0760176 -2.2337239 1.6824578 226 44
-1.0448208 -2.1662786 1.6831318 226 45
-1.0196729 -2.1123066 1.6912268 227 46
-0.99431396 -2.0577786 1.6974154 227 47
-0.96910101 -2.0034943 1.7022344 227 48
-0.94437653 -1.9502252 1.7062677 227 49
-0.92440903 -1.9076068 1.717173 227 50
-0.90483487 -1.8658177 1.727668 227 51
-0.88532954 -1.8241261 1.7371838 227 52
-0.86082524 -1.77105 1.7358243 227 53
-0.84154147 -1.7297264 1.7432243 228 54
-0.82235008 -1.6885521 1.7496637 227 55
-0.80325818 -1.647543 1.7551484 227 56
-0.78427309 -1.6067152 1.7596849 228 57
-0.76540214 -1.5660847 1.7632806 228 58
-0.74665236 -1.5256673 1.7659425 229 59
-0.72774178 -1.484817 1.7669861 228 60
-0.71381825 -1.4553316 1.7790185 229 61
-0.69540989 -1.4155158 1.7790713 229 62
-0.67714971 -1.3759727 1.7782197 228 63
-0.66312271 -1.3461152 1.7874302 232 64
-0.64511257 -1.3070269 1.784937 229 65
-0.63542074 -1.2871052 1.8047851 232 66
-0.61761105 -1.2483734 1.8008231 231 67
-0.60378724 -1.2188224 1.8075027 230 68
-0.58627224 -1.1806445 1.8019527 229 69
-0.57261491 -1.1513847 1.807323 231 70
-0.55925226 -1.1227734 1.8129044 232 71
-0.54570407 -1.0936892 1.8171229 232 72
-0.53244895 -1.0652514 1.8215764 233 73
-0.51902592 -1.0363784 1.8246589 232 74
-0.50589412 -1.0081488 1.8280008 231 75
-0.49261189 -0.97952133 1.8299637 232 76
-0.4794082 -0.95103478 1.83137 231 77
-0.4695715 -0.93051487 1.8457928 233 78
-0.45345229 -0.89499599 1.8333871 232 79
-0.44362342 -0.8744483 1.8469573 234 80
-0.43087432 -0.84688228 1.8471731 233 81
-0.41802672 -0.81902999 1.8459929 233 82
-0.4081513 -0.79832071 1.8584044 234 83
-0.39559764 -0.771101 1.8571641 234 84
-0.38297114 -0.74365014 1.8545216 235 85
-0.37307265 -0.72283053 1.8657848 235 86
-0.36311612 -0.70186877 1.8767287 234 87
-0.35065764 -0.67471081 1.8727458 234 88
-0.33846584 -0.64815176 1.8691803 234 89
-0.32851568 -0.62714398 1.8789876 236 90
-0.31633157 -0.60050625 1.8736099 236 91
-0.30637237 -0.57944089 1.8826915 235 92
-0.2944853 -0.55344862 1.8773687 235 93
-0.28452075 -0.53233391 1.8857336 235 94
-0.27268487 -0.50635773 1.8786085 237 95
-0.26272953 -0.48522538 1.8862571 236 96
-0.25273725 -0.46399605 1.8935822 236 97
-0.24124674 -0.43875229 1.8861789 236 98
-0.23127112 -0.41752195 1.8927974 234 99
-0.22126456 -0.39620757 1.8990912 235 100
-0.21122898 -0.37481344 1.9050596 237 101
-0.2011663 -0.35334343 1.9107012 236 102
-0.18997243 -0.32858801 1.9003798 237 103
-0.17995295 -0.30717456 1.9053195 235 104
-0.16991234 -0.28569829 1.9099321 236 105
-0.15985247 -0.26416314 1.9142172 235 106
-0.14977533 -0.24257331 1.9181737 236 107
-0.13968277 -0.22093287 1.9218007 235 108
-0.12957676 -0.19924599 1.9250979 237 109
-0.1194592 -0.17751677 1.9280643 235 110
-0.10933204 -0.1557494 1.9306997 234 111
-0.099197209 -0.13394797 1.9330034 235 112
-0.089056626 -0.11211668 1.934975 235 113
-0.078912228 -0.090259671 1.936614 235 114
-0.068765961 -0.068381116 1.9379202 236 115
-0.058619753 -0.046485215 1.9388933 235 116
-0.048475537 -0.024576098 1.9395332 235 117
-0.038335245 -0.0026579723 1.9398397 238 118
-0.027826905 0.019233502 1.9558085 237 119
-0.017607637 0.041357674 1.9554448 238 120
-0.0073981807 0.063478306 1.9547448 237 121
0.0027995259 0.085591152 1.9537084 237 122
0.012983508 0.10769201 1.9523361 238 123
0.023935638 0.13068658 1.9655797 238 124
0.034172669 0.15293835 1.9635187 236 125
0.045409903 0.17653567 1.9770281 236 126
0.055697262 0.19893305 1.9742671 236 127
0.065960795 0.2212968 1.971166 237 128
0.076198608 0.24362271 1.9677255 238 129
0.087793872 0.26807308 1.9797382 235 130
0.098065019 0.29050857 1.9755844 238 131
0.10977264 0.31529522 1.9858235 237 132
0.12171894 0.34056866 1.9966229 235 133
0.13206261 0.36321914 1.9913623 237 134
0.14408883 0.38875991 2.0003633 236 135
0.15443735 0.41145951 1.9943691 237 136
0.16675678 0.43762749 2.0035033 238 137
0.17907697 0.46387184 2.0112162 236 138
0.18946218 0.48671091 2.004077 235 139
0.20207545 0.51358438 2.0118828 238 140
0.21481168 0.54074878 2.019212 236 141
0.22521642 0.56369156 2.0109017 234 142
0.23794377 0.5909338 2.0163846 237 143
0.25093767 0.61872882 2.0223203 236 144
0.26387227 0.64647096 2.0268204 235 145
0.27707717 0.67477518 2.03175 234 146
0.29020506 0.70298845 2.0352414 235 147
0.30360681 0.73177266 2.0391395 235 148
0.31710416 0.76079142 2.04251 235 149
0.33049801 0.78966194 2.04444 232 150
0.34417024 0.8191151 2.0467422 233 151
0.35772112 0.84838146 2.0476041 232 152
0.37155312 0.87823749 2.0488145 234 153
0.38869601 0.91459 2.06269 235 154
0.40275159 0.94499367 2.0626817 236 155
0.42025769 0.982207 2.0751247 234 156
0.43428791 1.0126671 2.0730045 234 157
0.44860291 1.0437279 2.0711694 234 158
0.46273309 1.0744643 2.0678995 233 159
0.48473579 1.120849 2.0909131 233 160
0.50308549 1.160087 2.0995498 234 161
0.51780462 1.1921654 2.0949864 233 162
0.53255975 1.2243537 2.0898099 231 163
0.55524242 1.2724489 2.1082613 233 164
0.57420653 1.3131894 2.1136 230 165
0.58924305 1.346104 2.1061842 232 166
0.61286813 1.3963544 2.1224103 232 167
0.63227957 1.4382031 2.1250699 230 168
0.65182477 1.480389 2.1268194 230 169
0.67612696 1.5322769 2.1397564 229 170
0.70038885 1.5841808 2.1507261 231 171
0.72071791 1.628185 2.150142 229 172
0.74538296 1.681083 2.1587942 230 173
0.77056992 1.7351373 2.1669214 230 174
0.79101503 1.7795985 2.1624141 229 175
0.82126129 1.8441716 2.1786287 229 176
0.84705454 1.8997405 2.1828904 229 177
0.87303048 1.9557738 2.1858337 225 178
0.90925062 2.0329452 2.2082105 227 179
0.9353438 2.0894244 2.2074988 226 180
0.97220677 2.1681783 2.2262194 225 181
1.0043902 2.2374201 2.2333357 225 182
1.0364695 2.3065596 2.2380965 224 183
1.0793805 2.3982148 2.2602632 222 184
1.1230431 2.491591 2.2806213 224 185
1.1559262 2.5627801 2.279474 225 186
1.1946125 2.6461244 2.2858958 232 187
1.2001414 2.6606872 2.2363384 231 188
1.1999519 2.6633244 2.178333 230 189
1.199333 2.6650155 2.1206574 232 190
1.2037547 2.6771677 2.0714023 232 191
1.2082086 2.6893609 2.0226877 229 192
1.206414 2.6884706 1.9657393 231 193
1.2097969 2.6983628 1.9167296 229 194
1.2072196 2.6957467 1.8604091 231 195
1.2099068 2.7041183 1.8116987 232 196
1.2126493 2.7125809 1.7635337 230 197
1.2146909 2.7195473 1.7149806 225 198
0.78457755 1.8177584 1.1709538 224 199
0.7838127 1.8178891 1.1369761 224 200
0.77034754 1.7912388 1.0898432 227 201
0.76905715 1.7901906 1.0566645 233 202
0.7671504 1.7878186 1.0233076 233 203
0.77135348 1.7983307 0.99626505 229 204
0.72567481 1.7033588 0.92327452 233 205
0.72972763 1.7134587 0.89789367 230 206
1.2363365 2.8026891 1.023604 227 213
1.2401876 2.8132508 0.98112601 230 214
1.2437892 2.8232808 0.93849736 223 215
0.76400465 1.8012999 0.63715398 223 216
0.76596683 1.806971 0.60999763 220 217
0.76776981 1.8123019 0.58276141 219 218
0.73069465 1.7344234 0.53863496 232 219
0.73210967 1.7388561 0.512519 221 220
1.1494238 2.6348782 0.63931817 226 221
1.2489905 2.8506207 0.63222784 222 222
1.2505586 2.8562779 0.58911318 229 223
1.2518752 2.8613944 0.5459227 229 224
1.2529397 2.8659697 0.50266457 228 225
1.2537522 2.8700025 0.45934701 223 226
0.88162285 2.0739398 0.29027915 224 229
0.83569682 1.9764099 0.25579408 225 230
0.83538961 1.9773072 0.22606441 232 231
0.83490998 1.9778317 0.19632813 221 232
0.73654372 1.7664797 0.16926304 232 233
0.73580861 1.7662827 0.14274669 224 234
1.1584711 2.6840043 0.076700345 223 235
1.0528018 2.4568665 0.049413487 226 236
1.051132 2.4551978 0.012425095 229 237
1.0554986 2.4666476 -0.025735304 231 238
1.0600445 2.4785099 -0.064361289 232 239
1.0510678 2.4609613 -0.099925563 223 240
0.38983902 1.0232702 0.040970311 218 242
0.38074094 1.0050472 0.013238847 221 244
0.37322459 0.98943257 0.00098340213 215 245
0.3652544 0.972803 -0.010638282 223 246
0.363754 0.97031409 -0.02504088 218 247
0.74721122 1.811337 -0.24538095 229 248
0.74405926 1.8059429 -0.27248168 226 249
1.2855957 2.9960935 -0.62969136 221 250
0.18392444 0.5824964 -0.047266349 217 259
0.17662512 0.56685632 -0.050101474 215 260
0.16897279 0.55040973 -0.052119017 210 261
0.31422129 0.87321323 -0.21620019 217 262
0.31156522 0.86814243 -0.22903959 219 263
0.30289692 0.84970492 -0.23499183 221 264
0.28871742 0.81897599 -0.23389475 220 265
0.28012729 0.80064738 -0.23870094 222 266
0.26612055 0.77021259 -0.23609264 221 267
0.25798807 0.75283927 -0.24023972 221 268
0.24952632 0.73470473 -0.24345325 223 269
0.24110186 0.71662617 -0.24619795 224 270
0.23306891 0.69939673 -0.24898721 223 271
0.22472703 0.68144864 -0.25081384 224 272
0.21677753 0.66435301 -0.25271386 224 273
0.20853287 0.64656752 -0.25363326 225 274
0.20068109 0.62963718 -0.25465512 225 275
0.19254798 0.61204582 -0.25467932 225 276
0.18976006 0.60648072 -0.26353747 225 277
0.18169838 0.58900654 -0.2628476 223 278
0.17402856 0.57238817 -0.26231736 223 279
0.16610458 0.55516601 -0.26075661 224 280
0.1633013 0.5495221 -0.26874822 225 281
0.15578216 0.53317255 -0.26712811 225 282
0.14802948 0.51626247 -0.26445508 226 283
0.14521834 0.51057047 -0.2718541 225 284
0.13308214 0.48361778 -0.25850731 223 285
0.13504311 0.48879087 -0.27623683 226 286
0.12751347 0.47229308 -0.27222806 225 287
0.12467264 0.46650159 -0.27895653 213 288
0.11727056 0.45024526 -0.27429122 222 289
0.11442547 0.44442689 -0.28068388 225 290
0.10743415 0.42906338 -0.27609998 226 291
0.10458596 0.42322141 -0.28217006 226 292
0.097461715 0.40749949 -0.27623814 227 293
0.090710342 0.39260352 -0.27067584 232 294
0.079967618 0.36841404 -0.25255144 233 295
0.073253542 0.35351324 -0.24536096 237 296
0.070609659 0.34805328 -0.2502892 238 297
0.067939162 0.3425312 -0.25513321 237 298
0.065242544 0.33694822 -0.25989211 236 299
0.058800325 0.32258171 -0.25167853 235 300
0.056130663 0.3170411 -0.25613481 236 301
0.053437106 0.3114444 -0.2605058 238 302
0.044788055 0.29252195 -0.25643528 239 304
0.042101309 0.28692037 -0.26043332 238 305
0.039393358 0.28126836 -0.26434511 234 306
0.033502452 0.26800495 -0.2544291 225 307
0.030835867 0.26242739 -0.25805467 226 308
0.028150231 0.25680411 -0.26159453 221 309
0.028359972 0.25817826 -0.27911645 224 310
-0.0045147687 0.17933953 -0.13200782 234 311
-0.006441541 0.17529291 -0.13431375 224 312
0.022382259 0.24648844 -0.30272889 227 313
0.01702936 0.2343699 -0.29245281 227 314
0.014154308 0.22831403 -0.29555786 216 315
-0.040392715 0.093935974 0.016407922 229 316
-0.041719735 0.091023497 0.01720807 229 317
-0.043308727 0.087444149 0.019915625 230 318
-0.045393981 0.082591705 0.026423261 231 319
-0.046369594 0.080527186 0.025551423 230 320
-0.047349527 0.078451648 0.024711162 230 321
-0.048333608 0.076365486 0.023902684 229 322
-0.049321644 0.074269079 0.02312611 232 323
-0.050313443 0.072162852 0.022381619 234 324
-0.051308822 0.070047185 0.021669328 232 325
-0.052307587 0.067922503 0.020989388 234 326
-0.053309552 0.065789193 0.020341933 234 327
-0.05431452 0.063647665 0.019727051 234 328
-0.055322304 0.061498333 0.019144908 232 329
-0.056404695 0.05913464 0.019571275 231 330
-0.05747807 0.056788411 0.020036414 231 331
-0.058602728 0.054277688 0.021521226 232 332
-0.059815977 0.051469706 0.02501671 234 333
-0.061230097 0.047965471 0.033494741 234 334
-0.061936405 0.046715524 0.028205782 234 335
-0.062514365 0.046002805 0.017975241 231 336
-0.063589543 0.043589316 0.019646242 229 337
-0.064720377 0.040896758 0.024338081 229 338
-0.06543196 0.040049665 0.011163324 226 339
-0.066438138 0.038041882 0.007952854 222 340
-0.067573383 0.03517703 0.015742525 226 341
-0.068599775 0.032859772 0.01759094 227 342
-0.069596894 0.03049897 0.021473318 228 343
-0.070511997 0.028103631 0.029390171 228 344
-0.071554177 0.026219241 0.022348598 231 345
-0.072349481 0.024026949 0.03133291 232 346
-0.073433846 0.02199555 0.025352761 231 347
-0.074747115 0.019729707 0.014409974 231 348
-0.075770386 0.017511716 0.014497027 228 349
-0.076792382 0.015294715 0.014617816 226 350
-0.077812903 0.013079127 0.014772296 225 351
-0.078831762 0.010865378 0.014960423 224 352
-0.07978788 0.0087332921 0.016177148 223 353
-0.080663875 0.0067207329 0.018418148 220 354
-0.081370078 0.0049698036 0.022669747 220 355
-0.083977997 -0.0002902858 0.015416443 220 357
-0.084988467 -0.0024965629 0.015807763 218 358
-0.086090967 -0.0048520118 0.015249044 220 359
-0.087302238 -0.0073932204 0.013747975 220 360
-0.088638887 -0.010156594 0.01131323 222 361
-0.090341285 -0.013560113 0.0060043335 221 362
-0.09104909 -0.015275631 0.0095159113 222 363
-0.093196161 -0.019494489 0.0014177412 220 364
-0.092737712 -0.019147396 0.013687477 222 365
-0.094556332 -0.022813778 0.008596614 224 366
-0.09517964 -0.024351604 0.012205198 217 367
-0.095475011 -0.025280833 0.017731428 200 368
-0.084401712 -0.0059243552 0.10521734 96 372
-0.084890194 -0.0070049204 0.10567314 80 373
-0.085198462 -0.0077451654 0.1070708 96 374
-0.085310705 -0.0081100129 0.10939432 93 375
-0.083791353 -0.0070224069 0.15125105 nan 396
-0.084012873 -0.0075258315 0.15171269 213 397
-0.084447332 -0.0085152909 0.15265854 212 399
-0.084660187 -0.0090011358 0.15314256 214 400
-0.085173845 -0.010099977 0.15290962 215 401
-0.36274478 -0.5802927 -0.42224264 211 406
-0.3608596 -0.57726312 -0.4022913 214 407
-0.36937377 -0.59561658 -0.40349537 217 408
-0.37260264 -0.60310233 -0.39395064 219 409
-0.38083476 -0.62091732 -0.39379251 219 410
-0.38945189 -0.63955522 -0.39382482 219 411
-0.39777228 -0.65760732 -0.39278817 220 412
-0.42609423 -0.71802616 -0.4088493 218 414
-0.43461949 -0.73661047 -0.40611643 217 415
-0.44888023 -0.76714832 -0.41200393 222 416
-0.45209867 -0.77474856 -0.39984834 235 417
-0.46105117 -0.79430073 -0.396285 229 418
-0.49270374 -0.86124611 -0.42524886 218 419
-0.49596605 -0.86901665 -0.411659 219 420
-0.49914697 -0.87661725 -0.39795423 221 421
-0.53777349 -0.96042681 -0.39305222 220 424
-0.54081476 -0.96779823 -0.37796146 226 425
-0.54376614 -0.97498083 -0.36276215 158 426
-0.60071886 -1.095772 -0.40848082 155 427
-0.61584926 -1.1287118 -0.40445387 210 428
-0.61264557 -1.1230546 -0.38022703 211 429
-0.58491206 -1.0656195 -0.33160269 211 430
-0.58163762 -1.0597163 -0.30914336 215 431
-0.58415848 -1.0660402 -0.29256231 217 432
-0.68862605 -1.2892292 -0.34553236 220 434
-0.69127762 -1.2960196 -0.32545197 228 435
-0.69381064 -1.3025585 -0.30527306 237 436
-0.68973804 -1.2950732 -0.28007329 238 437
-0.6920085 -1.3010432 -0.25991952 238 438
-0.69416022 -1.3067607 -0.23967965 237 439
-0.69004852 -1.2991457 -0.21533425 238 440
-0.69194275 -1.3043042 -0.19513382 235 441
-0.69371814 -1.3092096 -0.1748596 237 442
-0.69537437 -1.3138609 -0.15451564 239 443
-0.69028497 -1.3041048 -0.1306714 220 444
-0.81454951 -1.570835 -0.16995282 227 445
-0.8098473 -1.5620892 -0.14281692 238 446
-0.81122988 -1.5663503 -0.11863436 239 447
-0.80579251 -1.5559973 -0.091826186 240 448
-0.80688202 -1.5596187 -0.067748323 236 449
-0.80783075 -1.5629386 -0.043621078 238 450
-0.80863869 -1.5659559 -0.01944904 238 451
-0.80930555 -1.5686704 0.0047632009 238 452
-0.80983126 -1.5710813 0.029010996 238 453
-0.81021571 -1.5731882 0.053289756 240 454
0.17265701 -0.18367077 1.941155 1829 0
0.14370888 -0.17382461 1.9412427 1826 1
0.11474406 -0.16373417 1.9388083 1905 2
0.08605063 -0.15415551 1.9408072 1810 3
0.057371192 -0.14481428 1.9452655 1810 4
0.028639026 -0.13474618 1.9422302 1894 5
-7.6331198e-05 -0.12510483 1.9436452 1852 6
-0.028933249 -0.11564811 1.9475214 1828 7
-0.057559527 -0.10565466 1.9448941 1874 8
-0.086529948 -0.096059091 1.947711 1811 9
-0.11550342 -0.086317852 1.948999 1888 10
-0.14452779 -0.076508641 1.9497517 1753 11
-0.17371684 -0.066686288 1.9509583 1787 12
-0.20380583 -0.057067707 1.9575568 1756 13
-0.23212701 -0.046782941 1.9507524 1794 14
-0.26249889 -0.036962166 1.9562316 1733 15
-0.29178792 -0.026804686 1.9542553 1750 16
-0.32188898 -0.016689286 1.9556458 1766 17
-0.35188526 -0.0064628273 1.9554852 1728 18
-0.38171831 0.0038542151 1.9537801 1735 19
-0.41309583 0.014201492 1.9573126 1744 20
-0.44388103 0.024679393 1.957333 1697 21
-0.47278488 0.035208717 1.9500401 1918 22
-0.48178786 0.04497081 1.879246 813 23
-0.48071146 0.053532332 1.7848728 826 24
-0.48097098 0.061343625 1.7032368 802 25
-0.47937864 0.06830883 1.6238811 1037 26
-0.48002058 0.074846238 1.5570867 1211 27
-0.47785562 0.080569893 1.4887943 1067 28
-0.47633475 0.085863218 1.4273684 1216 29
-0.46032727 0.088862211 1.3380661 1574 30
-0.46009713 0.093381681 1.2894647 1405 31
-0.46190381 0.09788584 1.2483546 1551 32
-0.45934343 0.10147104 1.2012438 1694 33
-0.46050167 0.1053694 1.1642038 1840 34
-0.46154565 0.10904204 1.1291388 2191 35
-0.46256959 0.11252314 1.0960262 2120 36
-0.46214217 0.115571 1.0622708 1907 37
-0.46231824 0.11855954 1.0313135 2150 38
-0.46323067 0.12153953 1.0030968 1976 39
-0.46281314 0.12412703 0.97424299 2272 40
-0.4621582 0.1265344 0.94643933 2504 41
-0.45670766 0.12782291 0.9132061 2758 42
-0.45915073 0.13062792 0.89234638 2629 43
-0.45984948 0.13297834 0.8700155 2527 44
-0.45873284 0.13484256 0.84629166 2938 45
-0.45823953 0.13675314 0.82432061 3055 46
-0.45909029 0.13888885 0.80480635 2892 47
-0.46009833 0.14099476 0.78617299 3021 48
-0.45931518 0.14261749 0.76620209 3219 49
-0.46139991 0.14485833 0.75001663 3382 50
-0.46309954 0.14696082 0.73390806 3007 51
-0.46232468 0.14841026 0.7157988 3650 52
-0.46252334 0.15004568 0.69922602 3456 53
-0.45800978 0.15044515 0.67876208 4030 54
-0.46028072 0.15250437 0.66516668 3889 55
-0.45854843 0.15350123 0.64839596 3834 56
-0.45866907 0.15493225 0.63370323 3988 57
-0.45845598 0.15623888 0.61912471 4095 58
-0.45945442 0.15783221 0.60587525 4281 59
-0.45938581 0.15911107 0.59211034 4251 60
-0.45980388 0.16049081 0.57902974 4563 61
-0.45834488 0.16132954 0.56491405 4130 62
-0.45818761 0.16249359 0.55204338 4693 63
-0.4585726 0.1637824 0.53980511 4575 64
-0.45788065 0.1647463 0.52712649 4397 65
-0.4552587 0.16513759 0.51355541 5159 66
-0.45654151 0.1666107 0.50259995 4860 67
-0.45252851 0.16654587 0.48884487 4881 68
-0.45419818 0.16809201 0.47850943 5003 69
-0.45308992 0.16881661 0.4668622 5112 70
-0.454353 0.17021725 0.45660162 5176 71
-0.45542556 0.17155114 0.4463613 5198 72
-0.45278534 0.17176788 0.43456954 5361 73
-0.45434344 0.17322031 0.42482337 5285 74
-0.45305002 0.17380467 0.41399202 5160 75
-0.45244852 0.17458235 0.40360701 5718 76
-0.4534604 0.17584014 0.39395282 5828 77
-0.45248601 0.17647989 0.38368398 5794 78
-0.45406061 0.17789575 0.37438369 5938 79
-0.45180881 0.17811626 0.36394978 5689 80
-0.45304802 0.1794143 0.35468787 5955 81
-0.45320439 0.1803679 0.34517056 6086 82
-0.45412365 0.18155694 0.33590961 5853 83
-0.45209211 0.18180202 0.32600892 6263 84
-0.45548981 0.18377493 0.3173804 5631 85
-0.45406437 0.1841996 0.307762 5931 86
-0.45341212 0.18486528 0.29837844 6400 87
-0.45165953 0.18516593 0.28889394 6211 88
-0.45445868 0.18694864 0.28012213 6364 89
-0.45333678 0.18744633 0.27082422 5670 90
-0.45489469 0.18882531 0.26185375 6107 91
-0.4544113 0.18952815 0.25268477 6199 92
-0.45282862 0.18986006 0.24348126 6280 93
-0.4529877 0.19077164 0.23441789 6216 94
-0.45489031 0.19227307 0.22539319 5836 95
-0.45569444 0.19340798 0.21629025 5961 96
-0.69574177 0.27628201 0.20405386 927 97
-0.37648806 0.16793863 0.20049846 1290 98
-0.37598559 0.16849393 0.19282064 1163 99
-0.37724161 0.16965942 0.18502045 1063 100
-0.37742275 0.17045702 0.17724124 1122 101
-0.38122904 0.17252837 0.1690425 1043 102
-0.38207471 0.17357396 0.16103315 1056 103
-0.3809132 0.173916 0.15323785 1088 104
-0.38148585 0.17487518 0.14515947 1034 105
-0.38098946 0.17545909 0.13720107 1079 106
-0.38313231 0.17699499 0.12867668 913 107
-0.38235402 0.17748961 0.1206477 1052 108
-0.39336196 0.18226641 0.10976538 1715 109
-0.37947398 0.17800736 0.10481104 3132 110
-0.37919748 0.17869604 0.096536621 2946 111
-0.3787742 0.17933771 0.088230595 2939 112
-0.37999997 0.18059765 0.079323232 2805 113
-0.37748322 0.18047766 0.07153517 4423 114
-0.52570319 0.23680396 0.0094911605 1263 115
-0.38969842 0.18673237 0.049374744 431 116
-0.38230109 0.18480231 0.04315798 890 117
-0.38352692 0.18613589 0.033472285 835 118
-0.38455752 0.18741311 0.023679942 804 119
-0.38196912 0.18731652 0.015386745 656 120
-0.38347751 0.18880875 0.0050407648 676 121
-0.38056561 0.18860383 -0.0032712221 673 122
-0.38333932 0.19062752 -0.014681652 699 123
-0.38668242 0.19290577 -0.026734009 578 124
-0.38321683 0.19252342 -0.035163239 713 125
-0.3876853 0.19530462 -0.048482671 623 126
-0.38543919 0.19543903 -0.057985798 658 127
-0.38617098 0.19678591 -0.069589689 569 128
-0.3843019 0.19710608 -0.079699948 548 129
-0.38531461 0.19861905 -0.09204863 538 130
-0.38071093 0.19785766 -0.10056604 590 131
-0.389494 0.20263679 -0.11947937 39 132
0.022768999 0.043023117 0.084235415 193 176
0.025552088 0.041647699 0.088759676 3690 177
0.028176144 0.040320158 0.093350068 2316 178
0.030731712 0.038916636 0.098990105 14670 179
0.032566447 0.038408291 0.097761489 1842 180
1.6662863 -0.39499813 -1.1996804 206 236
1.7186744 -0.41321713 -1.1956086 209 237
1.7751613 -0.43268198 -1.1931175 188 238
1.8327765 -0.45263052 -1.1895736 205 239
1.8993104 -0.47516233 -1.1908157 185 240
4.17559 -1.2482057 -1.2103 25 258
4.3615532 -1.3135715 -1.1885207 297 259
4.3617177 -1.3216636 -1.1035724 305 260
3.8359964 -1.2124776 -0.36597151 161 268
5.1042137 -1.8614722 1.9306968 51 294
4.816669 -1.7637407 1.932322 61 295
4.541573 -1.6696814 1.9279701 49 296
4.3130856 -1.5922834 1.9320211 90 297
4.1078587 -1.522933 1.9374405 67 298
3.9186819 -1.4590039 1.9424102 81 299
3.7248399 -1.3926164 1.9381809 113 300
3.556318 -1.3353293 1.9390337 146 301
3.4033992 -1.2835146 1.9415886 176 302
2.7380946 -1.0558912 1.9295186 308 307
2.6232059 -1.0162283 1.9236767 356 308
2.5251009 -0.98294848 1.9249123 364 309
2.4348109 -0.9525094 1.9280556 372 310
2.3437626 -0.92144227 1.9272867 455 311
2.2641118 -0.89475912 1.9318471 469 312
2.1888189 -0.86961526 1.9369973 478 313
2.1097376 -0.8426255 1.9362676 490 314
2.0343163 -0.8168934 1.9356614 596 315
1.9596387 -0.7912032 1.9328213 580 316
1.8941424 -0.76916689 1.9355674 686 317
1.8085903 -0.73824573 1.9165654 737 318
1.7480069 -0.71781319 1.9185855 727 319
1.6912912 -0.69886243 1.9223518 715 320
1.635691 -0.68021101 1.9252682 748 321
1.5780014 -0.66043562 1.9238228 802 322
1.527826 -0.64382237 1.9287624 869 323
1.4743193 -0.62553298 1.9279724 925 324
1.4249746 -0.60894948 1.9302378 944 325
1.3736883 -0.59129643 1.9281844 977 326
1.3269938 -0.57558882 1.9301723 1036 327
1.2801296 -0.55963761 1.9301953 1048 328
1.2359141 -0.54477519 1.9321966 1117 329
1.1829287 -0.52553296 1.919459 1087 330
1.1417869 -0.51180273 1.9223677 1233 331
1.101963 -0.49858391 1.9259397 1243 332
1.0643836 -0.48635584 1.9319084 1247 333
1.0279347 -0.47459173 1.9387136 1073 334
0.97526079 -0.45441025 1.9149259 103 335
0.94728237 -0.44673163 1.9344369 15 336
0.84544075 -0.41405451 1.9554889 20 339
0.80495107 -0.39936477 1.9459088 90 340
0.77491182 -0.39035684 1.9587831 197 341
0.75342888 -0.38626963 1.9928834 138 342
0.68268877 -0.35336328 1.8995972 436 343
0.67454445 -0.35708314 1.9682246 82 344
0.63737214 -0.34348464 1.9582417 234 345
0.61131489 -0.33668405 1.9801207 590 346
0.55617094 -0.3110503 1.9075876 425 347
0.53228265 -0.30539393 1.9337566 527 348
0.50745219 -0.29929489 1.9586362 186 349
0.47221079 -0.285909 1.9439535 1700 350
0.4405241 -0.2748419 1.9409895 1640 351
0.41033679 -0.26477289 1.9431804 1703 352
0.37947178 -0.25405157 1.9409153 1700 353
0.34900117 -0.24349929 1.9390177 1651 354
0.31904382 -0.23325054 1.938481 1758 355
0.28937098 -0.2231371 1.9383514 1805 356
0.26006785 -0.21328224 1.9396248 1801 357
0.23082912 -0.20339748 1.9403501 1829 358
0.20157239 -0.19336146 1.9395413 1810 359
-0.9044615 -1.5404124 0.057999656 237 0
-0.90446526 -1.5423192 0.082505763 237 1
-0.90430945 -1.5439273 0.10703278 238 2
-0.91151989 -1.5593452 0.13103098 238 3
-0.91104031 -1.560364 0.15580651 237 4
-0.91039979 -1.5610807 0.18058899 237 5
-0.90959835 -1.5614949 0.20537372 238 6
-0.90863609 -1.5616069 0.23015592 236 7
-0.91453564 -1.5746607 0.25545466 233 8
-0.91324186 -1.5741636 0.28042448 237 9
-0.91925281 -1.5874774 0.30637726 234 10
-0.91762221 -1.5863612 0.33152896 236 11
-0.91582924 -1.5849376 0.35665411 236 12
-0.92082977 -1.5964057 0.38330394 237 13
-0.91869605 -1.5943521 0.40856731 235 14
-0.9237805 -1.6060299 0.43588775 238 15
-0.92130083 -1.6033361 0.46128249 237 16
-0.91865826 -1.6003319 0.48662585 235 17
-0.92316556 -1.6109805 0.51466614 235 18
-0.92700452 -1.6203867 0.54289436 236 19
-0.92382389 -1.6163894 0.56847465 236 20
-0.92047995 -1.6120794 0.59398329 234 21
-0.92417502 -1.6212788 0.62303364 235 22
-0.92719758 -1.6292224 0.65219241 233 23
-0.92330444 -1.6238928 0.67787117 234 24
-0.93301284 -1.6447703 0.71171182 234 25
-0.92872566 -1.6387169 0.73761207 234 26
-0.93130684 -1.645933 0.76809257 234 27
-0.93364882 -1.6527237 0.79888558 234 28
-0.93531376 -1.6582398 0.82966417 234 29
-0.93190551 -1.6562911 0.88719487 234 31
-0.92647547 -1.6480981 0.91321152 232 32
-0.92724335 -1.6519792 0.94465345 233 33
-0.92818379 -1.6562331 0.97671986 232 34
-0.9284488 -1.6592065 1.0086479 231 35
-0.92887551 -1.6625328 1.0412097 232 36
-0.92853057 -1.6669542 1.1066132 232 38
-0.92816609 -1.668846 1.1398587 232 39
-0.92712963 -1.6694554 1.1728601 232 40
-0.92622697 -1.6703666 1.2065134 229 41
-0.93731213 -1.6949943 1.255336 228 42
-0.92947662 -1.6823149 1.2818241 229 43
-1.1812861 -2.1841094 1.6472819 219 44
-1.1525636 -2.1308486 1.6568878 226 45
-1.1243669 -2.07851 1.6656361 228 46
-1.095943 -2.0255966 1.6724854 226 47
-1.0676885 -1.9728959 1.6779628 226 48
-1.0455208 -1.9322348 1.6911201 226 49
-1.0234165 -1.8916162 1.7032862 226 50
-0.99561012 -1.8394707 1.7050612 227 51
-0.96837556 -1.7883433 1.7060978 229 52
-0.9462927 -1.7474629 1.7143669 230 53
-0.92466581 -1.7074112 1.7222664 228 54
-0.90314668 -1.6674875 1.7292042 228 55
-0.88174337 -1.6277076 1.7351856 229 56
-0.86046392 -1.5880868 1.740217 228 57
-0.83931655 -1.5486413 1.7443056 229 58
-0.81830907 -1.5093864 1.7474577 232 59
-0.79712892 -1.4696816 1.7489977 229 60
-0.77642965 -1.4308619 1.7502899 231 61
-0.76086998 -1.4025075 1.7619212 229 62
-0.7404266 -1.3640401 1.7615509 230 63
-0.72467792 -1.3351705 1.771121 230 64
-0.70896357 -1.3063184 1.7800848 231 65
-0.68892306 -1.2684231 1.7773247 231 66
-0.67365479 -1.240364 1.7856977 231 67
-0.65814507 -1.2117472 1.7927339 232 68
-0.63855749 -1.1745235 1.7876501 232 69
-0.62324005 -1.1461667 1.7933743 232 70
-0.60825169 -1.1184441 1.7993016 230 71
-0.5930618 -1.0902375 1.8038721 232 72
-0.57819897 -1.0626636 1.8086698 231 73
-0.56315434 -1.034642 1.8121023 232 74
-0.54843462 -1.0072507 1.8157861 233 75
-0.53355265 -0.9794479 1.8180966 232 76
-0.51876128 -0.95177215 1.8198488 231 77
-0.50768113 -0.93207568 1.8345158 233 78
-0.49321234 -0.9049961 1.8361328 233 79
-0.47861999 -0.87757647 1.8363616 234 80
-0.46434301 -0.85077477 1.8369126 234 81
-0.45320815 -0.83085257 1.8499949 233 82
-0.4388476 -0.80375308 1.8487303 233 83
-0.42479604 -0.77726209 1.8478212 234 84
-0.4136312 -0.75719422 1.8597507 234 85
-0.39953423 -0.73047698 1.8570259 232 86
-0.385566 -0.70396221 1.8537879 235 87
-0.37440306 -0.68380886 1.8645694 235 88
-0.36076725 -0.65791881 1.8613281 234 89
-0.34958094 -0.63766551 1.8713872 236 90
-0.33596194 -0.61166662 1.8663356 235 91
-0.32476884 -0.59134436 1.87567 237 92
-0.31148216 -0.56597412 1.8706651 235 93
-0.30028629 -0.54559112 1.8792837 236 94
-0.28904584 -0.52509946 1.8875806 235 95
-0.27588278 -0.49979138 1.8803799 235 96
-0.2646606 -0.47927839 1.8879604 235 97
-0.25340065 -0.45866945 1.8952179 234 98
-0.24062705 -0.43407226 1.8877409 234 99
-0.22939351 -0.41345817 1.8942916 235 100
-0.21812896 -0.39276063 1.9005179 236 101
-0.20683554 -0.37198353 1.9064186 234 102
-0.19551541 -0.35113084 1.9119923 235 103
-0.18310589 -0.32699224 1.9016004 234 104
-0.17184183 -0.30619067 1.9064724 236 105
-0.16055772 -0.285326 1.9110177 235 106
-0.14925572 -0.26440233 1.9152353 235 107
-0.13793798 -0.24342357 1.9191241 236 108
-0.12660664 -0.22239375 1.922684 237 109
-0.1152639 -0.20131686 1.9259133 236 110
-0.1039119 -0.18019694 1.9288127 237 111
-0.092552796 -0.15903802 1.9313805 238 112
-0.081188768 -0.1378441 1.9336169 233 113
-0.069821969 -0.11661927 1.9355211 235 114
-0.058454584 -0.095367543 1.9370928 234 115
-0.047088772 -0.074092992 1.9383318 236 116
-0.035726704 -0.052799664 1.9392378 235 117
-0.02437054 -0.031491607 1.9398108 236 118
-0.012531329 -0.010488926 1.9560399 237 119
-0.0010897666 0.011031436 1.9559455 235 120
0.010339297 0.032554373 1.9555147 237 121
0.021753669 0.054075733 1.9547474 238 122
0.033151165 0.075591415 1.9536445 238 123
0.045474984 0.097715408 1.9671628 235 124
0.056928746 0.11939012 1.965373 237 125
0.068358928 0.1410467 1.9632452 236 126
0.08107996 0.16392429 1.9766769 239 127
0.092558727 0.18572649 1.9738488 238 128
0.10543291 0.20902735 1.9855347 237 129
0.11694409 0.23094542 1.9819984 236 130
0.12842026 0.25282407 1.978121 238 131
0.1416842 0.27687046 1.9896441 236 132
0.15318449 0.29885033 1.9850459 235 133
0.16654226 0.32321137 1.9947848 235 134
0.19173704 0.3702296 1.9993558 237 136
0.20557328 0.39551276 2.0088048 237 137
0.21940397 0.42089558 2.0168343 237 138
0.23100071 0.44323206 2.0099752 236 139
0.24515997 0.46922484 2.018105 237 140
0.25928497 0.49526393 2.0248072 235 141
0.2708922 0.51771045 2.016783 234 142
0.2853446 0.54436028 2.0235457 235 143
0.29973382 0.57100254 2.0288754 236 144
0.31442577 0.59817922 2.0346527 237 145
0.32923448 0.62561476 2.0399246 233 146
0.34395051 0.65298754 2.0437582 234 147
0.35897499 0.68090814 2.0480049 234 148
0.373887 0.70872909 2.0508108 233 149
0.38911092 0.73710603 2.0540073 234 150
0.40420246 0.76534587 2.0557618 234 151
0.41960883 0.79414928 2.0578842 233 152
0.43870103 0.8288877 2.0728457 233 153
0.45436186 0.85826236 2.0737698 233 154
0.46984982 0.88742387 2.0732512 232 155
0.48950338 0.92337781 2.0861487 234 156
0.50546092 0.95344985 2.085273 234 157
0.52148205 0.98368663 2.0838163 231 158
0.54165083 1.0207763 2.0945582 234 159
0.56203192 1.0583279 2.1044905 233 160
0.58261847 1.0963296 2.113601 232 161
0.59907985 1.1276045 2.1094294 232 162
0.61997861 1.1663142 2.1169794 231 163
0.64106154 1.2054366 2.1236756 230 164
0.66232121 1.2449579 2.1295078 232 165
0.68374985 1.284865 2.134465 232 166
0.70064181 1.3172286 2.1266928 232 167
0.72231305 1.3577198 2.1299968 230 168
0.74413085 1.3985568 2.1323977 229 169
0.76608735 1.4397252 2.1338856 229 170
0.79348832 1.4902662 2.1465242 230 171
0.82115829 1.5414079 2.1579399 229 172
0.84362644 1.5837778 2.1563375 229 173
0.87691367 1.6448179 2.1763122 227 174
0.90531754 1.6976303 2.1839757 226 175
0.93925971 1.7601328 2.2009692 226 176
0.97354037 1.8233951 2.2163715 228 177
1.0027032 1.8779594 2.2198458 226 178
1.0434244 1.9527303 2.2430017 225 179
1.0730709 2.0084355 2.2434914 225 180
1.1084993 2.074353 2.2524827 225 181
1.1502509 2.1514878 2.2701392 224 182
1.1923723 2.2294762 2.2857583 225 183
1.2468207 2.3292987 2.3187068 223 184
1.2772573 2.387188 2.3101826 224 185
1.3266654 2.4786112 2.3292296 227 186
1.3451042 2.5156255 2.298985 231 187
1.3513609 2.5311432 2.2505615 232 188
1.3507816 2.534519 2.1929591 232 189
1.355834 2.5478091 2.1440601 231 190
1.3543537 2.5494535 2.0869453 231 191
1.3586094 2.5612326 2.0382209 231 192
1.3562441 2.5611696 1.9816568 231 193
1.3601346 2.5722039 1.9336755 230 194
1.363242 2.5818033 1.8852172 230 195
1.3664106 2.591475 1.8373065 231 196
1.3687944 2.599704 1.7889671 231 197
1.3643563 2.5956397 1.7337511 231 198
1.3659835 2.6024179 1.6857753 232 199
1.3676919 2.6093071 1.6383479 232 200
1.3756274 2.6274002 1.5974214 231 201
1.3762385 2.632256 1.5495956 231 202
1.3769439 2.6372478 1.5023146 229 203
1.383983 2.6536856 1.4610004 225 204
1.3835922 2.6566391 1.4134214 228 205
1.3828599 2.6589367 1.3660188 227 206
1.3822401 2.6614039 1.319154 220 207
1.3880798 2.6756108 1.277529 222 208
1.3863696 2.6760409 1.2305007 230 209
1.3916271 2.689168 1.188679 232 210
1.3897406 2.6892247 1.142189 230 211
1.3944188 2.7012765 1.1001935 229 212
1.3914493 2.6992993 1.0536711 230 213
1.3955488 2.7102723 1.0115499 232 214
1.3924233 2.7079585 0.96559101 232 215
1.3959477 2.7178581 0.92336649 228 216
1.3991929 2.7272439 0.88100255 224 217
1.4021587 2.7361145 0.83850724 221 218
1.4048444 2.7444682 0.79588872 226 219
1.4072496 2.7523029 0.75315505 227 220
1.4018782 2.7457283 0.70768368 230 221
1.4037114 2.7524869 0.66496229 228 222
1.4052643 2.7587252 0.62215078 229 223
1.4065363 2.7644422 0.57925725 229 224
1.4075276 2.7696364 0.53628993 229 225
1.4082375 2.774307 0.49325702 230 226
1.4161961 2.7925096 0.45148319 229 227
1.4163444 2.7961493 0.40812349 228 228
1.4162097 2.7992606 0.36472264 222 229
1.4157923 2.8018425 0.32128888 224 230
1.4150921 2.8038948 0.27783048 228 231
1.4211588 2.8186562 0.23455642 228 232
1.4198877 2.819653 0.19086671 229 233
1.4183332 2.8201168 0.14717723 230 234
1.4164954 2.8200474 0.10349636 229 235
1.4218599 2.8335702 0.059163362 229 236
1.4264504 2.8456664 0.01447013 230 237
1.431856 2.8662922 -0.12049404 223 240
1.4282594 2.8629642 -0.16479957 219 241
0.59014606 1.273126 0.015455782 212 242
0.58094066 1.2571545 -0.0017902553 200 243
0.57211375 1.2418694 -0.018713623 161 244
0.55588311 1.2124237 -0.032543302 129 245
0.54647082 1.1959375 -0.048169211 200 246
0.53017384 1.1662455 -0.06042859 190 247
0.52066046 1.1494789 -0.074889302 155 248
0.51154274 1.1334357 -0.089086354 184 249
0.50910777 1.130193 -0.10631898 203 250
0.5132705 1.1396378 -0.12718862 174 251
0.46659631 1.0525907 -0.13637459 210 253
0.45023799 1.0223819 -0.14345533 215 254
0.43771303 1.0008384 -0.16934261 225 256
0.42832941 0.98398918 -0.17958999 217 257
0.41849643 0.96623296 -0.18903655 218 258
0.41550666 0.96174186 -0.20361951 216 259
0.28808272 0.72448534 -0.23371363 221 269
0.27863675 0.70695436 -0.2366772 223 270
0.26923889 0.68947756 -0.23917386 224 271
0.26027989 0.67282963 -0.24171913 224 272
0.25098693 0.65547925 -0.24330163 224 273
0.24213339 0.63896102 -0.24496168 225 274
0.23296155 0.62176824 -0.24564105 223 275
0.22422926 0.60541028 -0.24642715 226 276
0.21519439 0.58840609 -0.2462157 223 277
0.2120433 0.58315217 -0.25487256 223 278
0.20309843 0.56626219 -0.25395122 223 279
0.1945913 0.55020791 -0.25319386 223 280
0.19141607 0.54486227 -0.26125115 224 281
0.18265788 0.52823603 -0.2592043 224 282
0.1743346 0.51244348 -0.257364 225 283
0.17115328 0.50704044 -0.26482952 224 284
0.16260912 0.49073139 -0.26168272 223 285
0.15449619 0.47525242 -0.2587851 223 286
0.15132622 0.46982569 -0.26566881 223 287
0.14811468 0.46431401 -0.27246517 220 288
0.14486217 0.45871845 -0.27917296 211 289
