# .PCD v0.7 - Point Cloud Data file format
VERSION 0.7
FIELDS x y z intensity index
SIZE 4 4 4 4 4
TYPE F F F F F
COUNT 1 1 1 1 1
WIDTH 1131
HEIGHT 1
VIEWPOINT 0 0 0 1 0 0 0
POINTS 1131
DATA ascii
-0.48807386 -1.6699121 1.7269565 229 58
-0.47749811 -1.6268287 1.729852 228 59
-0.4695926 -1.5946039 1.7420937 229 60
-0.45910826 -1.5518959 1.7432855 230 61
-0.44869244 -1.5094687 1.7435606 230 62
-0.4383491 -1.4673383 1.7429268 228 63
-0.43055204 -1.4355611 1.7522603 231 64
-0.42292538 -1.4044776 1.7617213 232 65
-0.41258785 -1.3623769 1.7579603 231 66
-0.40501732 -1.3315245 1.7660973 233 67
-0.39498037 -1.2906499 1.761471 230 68
-0.38732263 -1.2594461 1.7675432 233 69
-0.37983599 -1.2289389 1.7738079 231 70
-0.37222078 -1.1979107 1.7787192 232 71
-0.36463171 -1.16699 1.7830515 232 72
-0.35721314 -1.1367633 1.7876135 233 73
-0.34968078 -1.1060759 1.7908083 231 74
-0.34231812 -1.076079 1.7942573 233 75
-0.33699262 -1.0543576 1.8095901 232 76
-0.32755384 -1.0159314 1.798684 232 77
-0.32221472 -0.99415612 1.8131574 233 78
-0.31482032 -0.96403563 1.8136984 234 79
-0.30943245 -0.94206327 1.8274292 233 80
-0.30208248 -0.91212559 1.8269974 232 81
-0.29665154 -0.88997918 1.8399855 234 82
-0.28946725 -0.86071634 1.8394707 235 83
-0.28221774 -0.83119065 1.8375545 233 84
-0.27675331 -0.80890995 1.8493857 235 85
-0.26967144 -0.78006727 1.8474262 233 86
-0.26253897 -0.75102097 1.8440604 233 87
-0.25705442 -0.72866046 1.8547463 234 88
-0.25153488 -0.70615828 1.8651117 236 89
-0.24458322 -0.67784917 1.861338 237 90
-0.23760009 -0.64941466 1.8561544 237 91
-0.2320773 -0.62690121 1.8653878 235 92
-0.22652435 -0.60426563 1.8742989 236 93
-0.21972871 -0.57659549 1.8687668 235 94
-0.21416548 -0.55391932 1.8769591 233 95
-0.20857555 -0.53113496 1.8848269 235 96
-0.20181584 -0.50361538 1.8770962 233 97
-0.19622633 -0.48083416 1.8842455 235 98
-0.19061357 -0.45795882 1.8910688 236 99
-0.18497863 -0.43499377 1.8975646 236 100
-0.17932263 -0.41194353 1.9037321 235 101
-0.172813 -0.38544443 1.8949763 237 102
-0.16716641 -0.36243388 1.9004363 236 103
-0.16150215 -0.33935201 1.905567 237 104
-0.1550872 -0.31324276 1.8946612 237 105
-0.15012506 -0.2929922 1.9148374 235 106
-0.14378437 -0.26718682 1.9031898 236 107
-0.13811266 -0.24407718 1.9069601 237 108
-0.1324289 -0.22091901 1.9103999 236 109
-0.12673417 -0.19771677 1.9135087 234 110
-0.12102954 -0.17447494 1.9162859 235 111
-0.11531614 -0.15119797 1.9187307 236 112
-0.10991015 -0.12914358 1.9367908 236 113
-0.10412972 -0.10559483 1.9385864 236 114
-0.098343775 -0.082024202 1.9400455 236 115
-0.092553407 -0.058436222 1.9411678 235 116
-0.086759739 -0.034835443 1.9419532 237 117
-0.081011586 -0.011392302 1.9574006 237 118
-0.075166956 0.012386412 1.9425125 237 119
-0.06931857 0.036236554 1.9572842 236 120
-0.063473254 0.060045168 1.9567161 235 121
-0.057630226 0.083843827 1.9558078 239 122
-0.051790614 0.1076279 1.9545598 238 123
-0.045689173 0.13250805 1.9689312 237 124
-0.03980701 0.15646416 1.9669868 237 125
-0.033931699 0.18039167 1.9647007 240 126
-0.027666442 0.20593512 1.9769768 236 127
-0.021758948 0.22999243 1.9739832 238 128
-0.015861779 0.25400704 1.9706461 235 129
-0.0099760368 0.27797437 1.9669665 237 130
-0.0034688935 0.3045021 1.9787176 237 131
0.0030858889 0.33122122 1.9890665 237 132
0.0090311766 0.35542908 1.9842824 235 133
0.01575017 0.38281745 1.9947999 236 134
0.022555165 0.41055527 2.0048776 235 135
0.028551377 0.43496832 1.9989591 237 136
0.035413057 0.46293366 2.0072186 235 137
0.041416109 0.48737314 2.0005515 238 138
0.048443325 0.51601303 2.0089142 235 139
0.055479906 0.54468811 2.0158472 237 140
0.061510064 0.56923586 2.0080118 235 141
0.068712212 0.59858567 2.0150075 237 142
0.0759091 0.62791109 2.0205674 236 143
0.083251752 0.65783131 2.0265782 237 144
0.090663396 0.68803149 2.032083 236 145
0.098054759 0.71814632 2.0361466 237 146
0.10559546 0.74887037 2.0406263 235 147
0.1131058 0.77946788 2.0436614 234 148
0.12076765 0.81068331 2.0470898 234 149
0.12838903 0.84173119 2.0490727 233 150
0.13616383 0.87340474 2.0514252 234 151
0.1439935 0.90530062 2.0532284 232 152
0.1517674 0.93696678 2.053586 233 153
0.16136777 0.97609836 2.0675287 234 154
0.16938978 1.0087743 2.0675557 232 155
0.1792151 1.0488193 2.0800581 233 156
0.18736938 1.0820317 2.0788262 235 157
0.19544172 1.1149076 2.0761511 234 158
0.20555818 1.1561345 2.0864778 234 159
0.21579486 1.1978494 2.0959849 234 160
0.22627947 1.2405744 2.1054943 233 161
0.2346043 1.2744737 2.1001022 234 162
0.24732742 1.3263367 2.1202884 232 163
0.25578097 1.3607577 2.113431 233 164
0.26666716 1.4051118 2.1195912 232 165
0.27968395 1.4581641 2.1359587 234 166
0.29066375 1.5028945 2.1394005 232 167
0.30188423 1.5486051 2.1427107 233 168
0.31304413 1.5940659 2.1443181 236 169
0.32661247 1.6493564 2.1563761 233 170
0.33812916 1.696268 2.1567323 232 171
0.34460521 1.7226008 2.1324375 227 172
0.34840155 1.7379956 2.0960765 227 173
0.35203883 1.7527424 2.0596516 223 174
0.3556847 1.7675254 2.0238862 225 175
0.36172023 1.792062 1.9985863 224 176
0.36234388 1.7945132 1.9514927 224 177
0.36535332 1.8067025 1.9149067 224 178
0.36556 1.8074561 1.8682414 225 179
0.37108013 1.8298922 1.8423858 225 180
0.37651432 1.8519778 1.8162122 225 181
0.37619174 1.8505762 1.7698832 226 182
0.38138586 1.8716834 1.7434211 225 183
0.38069281 1.8687736 1.6974856 227 184
0.38564721 1.8889037 1.6707705 225 185
0.38745525 1.8961993 1.6342263 226 186
0.39219999 1.9154745 1.6071254 226 187
0.39081037 1.9097289 1.561958 226 188
0.39531583 1.9280293 1.5346705 227 189
0.39655143 1.9329935 1.4983076 225 190
0.39783815 1.9381671 1.4626024 227 191
0.40201461 1.9551266 1.4349183 226 192
0.40283489 1.9583997 1.3987408 226 193
0.41009122 1.987919 1.378837 227 194
0.41067195 1.990216 1.3425797 226 195
0.41131595 1.9927719 1.3069667 226 196
0.41160804 1.9938936 1.2710363 227 197
0.41196886 1.9952967 1.2357455 225 198
0.41859761 2.0222561 1.2139103 225 199
0.41872492 2.0227079 1.1785929 224 200
0.42196077 2.0358338 1.1497284 226 201
0.42510086 2.0485694 1.1206791 225 202
0.42814469 2.0609126 1.0914509 227 203
0.43439764 2.0863378 1.0677443 226 204
0.43726581 2.0979643 1.0379816 224 205
0.44003516 2.1091883 1.0080557 224 206
0.44527626 2.1304226 0.94773716 227 208
0.44774675 2.1404281 0.91735625 226 209
0.45375174 2.16484 0.89165896 225 210
0.45603621 2.1740866 0.86079168 227 211
0.45821846 2.1829169 0.82979536 225 212
0.46374816 2.2053895 0.80259919 226 213
0.46573746 2.2134328 0.77116132 224 214
0.47132909 2.2361569 0.74336642 222 215
0.47312194 2.2433994 0.7114948 225 216
0.47107917 2.2350118 0.67620069 222 217
0.47264993 2.2413495 0.64435172 222 218
0.47411519 2.2472579 0.61241525 222 219
0.47923493 2.2680566 0.58306551 223 220
0.48403037 2.2875328 0.55304945 225 221
0.48519295 2.2922068 0.5204621 224 222
0.48624766 2.2964411 0.48781103 223 223
0.48719436 2.3002355 0.45510256 222 224
0.48803282 2.3035886 0.42234308 221 225
0.14860877 0.92072505 0.26893646 223 226
0.14505073 0.90620542 0.25476986 229 227
0.15262944 0.93705463 0.24369128 220 228
0.39447433 1.9221131 0.21901935 219 231
0.39453864 1.9223233 0.19168235 229 232
0.39069808 1.9066284 0.16454929 229 233
0.39058253 1.9061064 0.1374386 229 234
0.39418924 1.9207451 0.10968992 229 235
0.39389208 1.9194829 0.082382813 229 236
0.39350459 1.917853 0.055096298 230 237
0.39302695 1.9158559 0.027835652 230 238
0.39601964 1.9279919 -0.0008315593 231 239
0.39535683 1.9252402 -0.02823168 230 240
0.39839 1.9375395 -0.057564661 231 241
0.39753944 1.9340229 -0.085095778 229 242
0.40013421 1.944536 -0.11483748 225 243
0.27465102 1.4335185 -0.055394337 218 244
0.27381641 1.4300804 -0.075727448 228 245
0.27291456 1.4263687 -0.096009567 235 246
0.27194574 1.4223841 -0.1162367 235 247
0.27440101 1.4323409 -0.13969056 228 248
0.22642618 1.2369757 -0.11302467 233 249
0.22540438 1.2327803 -0.13054536 232 250
0.22063875 1.2133435 -0.14385356 230 251
0.21951538 1.2087352 -0.16103388 211 252
0.20782065 1.1610917 -0.16498522 218 253
0.20298648 1.1413786 -0.1766272 226 254
0.19835684 1.1224991 -0.18808778 215 255
0.18521833 1.0689522 -0.20384528 215 257
0.17697582 1.0353701 -0.20805098 217 258
0.16875651 1.0018842 -0.21137531 219 259
0.1603438 0.96761274 -0.21344419 220 260
0.15218493 0.93437642 -0.21500404 220 261
0.14755574 0.9155069 -0.22214563 218 262
0.14270648 0.8957426 -0.22841133 222 263
0.13462481 0.8628248 -0.22776662 222 264
0.12980306 0.8431747 -0.23287843 223 265
0.12179757 0.81057006 -0.23071076 222 266
0.11722597 0.79194021 -0.235146 223 267
0.11245371 0.77249485 -0.2386535 223 268
0.10790376 0.75395489 -0.24217866 223 269
0.10316058 0.73462963 -0.24475606 224 270
0.098436005 0.71538103 -0.24686606 223 271
0.084794603 0.65980685 -0.25151825 225 274
0.080162413 0.64093804 -0.25181067 225 275
0.075755261 0.6229856 -0.25222284 224 276
0.074283816 0.61697537 -0.26096159 225 277
0.069712617 0.5983572 -0.2600981 224 278
0.065176286 0.57988191 -0.25879127 223 279
0.063683845 0.57378733 -0.26691389 223 280
0.059376411 0.55624455 -0.2655338 221 281
0.049223706 0.51493168 -0.2433136 217 282
0.050690331 0.52087235 -0.26089424 224 283
0.043627091 0.49212661 -0.24772944 223 284
0.04217276 0.48618969 -0.25459981 223 285
0.040695824 0.48016086 -0.26138473 222 286
0.039196536 0.47404119 -0.26808286 223 287
0.037675224 0.46783188 -0.27469301 226 288
0.036132149 0.46153417 -0.28121382 224 289
0.03191407 0.44436231 -0.27612889 219 290
0.027751349 0.42741671 -0.27064621 218 291
0.026222363 0.42117745 -0.27659029 226 292
0.024673834 0.41485876 -0.2824446 225 293
0.018267125 0.38879585 -0.26473832 224 294
0.014454648 0.37327805 -0.25864011 226 295
0.017648399 0.38623193 -0.2878347 227 296
0.013687901 0.37011322 -0.28065109 228 297
0.012126818 0.3637448 -0.28577578 230 298
0.010548905 0.35730797 -0.29080904 229 299
0.0068458617 0.34223798 -0.28361815 231 300
0.0052754432 0.33583227 -0.2883445 231 301
0.0036895275 0.32936361 -0.29297882 234 302
-3.0659139e-05 0.31422681 -0.28419977 231 303
-0.0016024932 0.30781606 -0.288526 231 304
-0.0031885356 0.30134764 -0.29276019 232 305
-0.0047884658 0.29482284 -0.2969017 230 306
-0.0082206205 0.28085947 -0.28801984 231 307
-0.009804517 0.2744005 -0.29186916 229 308
-0.013249077 0.26038921 -0.28161448 228 309
-0.014811434 0.25401852 -0.28517205 230 310
-0.014630679 0.25472137 -0.30285859 215 311
-0.054791275 0.091740042 0.01677528 232 312
-0.055675242 0.088142276 0.018301457 230 313
-0.056847453 0.083375685 0.022617847 232 314
-0.057009619 0.082706228 0.01790826 229 315
-0.058336318 0.077314116 0.024207026 229 316
-0.058884181 0.075080663 0.023235127 230 317
-0.059435219 0.072834343 0.022295192 231 318
-0.059989326 0.07057558 0.021387428 233 319
-0.060546398 0.068304814 0.020512015 233 320
-0.061106324 0.066022478 0.01966913 230 321
-0.061668999 0.063729011 0.018858895 232 322
-0.062234312 0.061424851 0.018081501 233 323
-0.062872082 0.058827415 0.018293649 231 324
-0.063572705 0.055975884 0.019507319 233 325
-0.064390056 0.05265259 0.022697717 233 326
-0.065365195 0.048692226 0.028853148 230 327
-0.065439738 0.048372813 0.02051954 232 328
-0.066377059 0.044566691 0.026782528 232 329
-0.066509917 0.044009771 0.018458188 232 330
-0.067313731 0.040743928 0.022864029 231 331
-0.068307988 0.036711767 0.032244116 228 332
-0.068746559 0.034920871 0.029880464 225 333
-0.069161698 0.033223603 0.026550412 225 334
-0.069459721 0.031995911 0.019279674 223 335
-0.070272684 0.02869885 0.026888549 221 336
-0.070671245 0.027065471 0.021644011 220 337
-0.070955768 0.025885347 0.010446772 223 338
-0.071569584 0.023386538 0.011206776 224 339
-0.07219559 0.020840026 0.013000801 226 340
-0.07282377 0.018286634 0.015831098 227 341
-0.073478408 0.015633084 0.022695512 224 342
-0.073965088 0.013635399 0.0146088 226 343
-0.074572586 0.011172115 0.020546213 226 344
-0.075114615 0.0089434143 0.0095193535 225 345
-0.075708076 0.0065279538 0.010525227 222 346
-0.076294869 0.0041397465 0.011565283 216 347
-0.076866485 0.00181532 0.013638243 214 348
-0.078175031 -0.0032444727 0.1565467 214 370
-0.078366563 -0.0040260954 0.15577547 214 371
-0.078563727 -0.004830624 0.15502042 214 372
-0.23522925 -0.64407712 -0.42755294 218 405
-0.23725849 -0.65232515 -0.41817945 222 406
-0.24195182 -0.67144299 -0.41852796 220 407
-0.24686012 -0.69143701 -0.41909093 220 408
-0.26743224 -0.77526611 -0.43641931 218 411
-0.27538183 -0.80766124 -0.44383484 234 412
-0.27438876 -0.80357605 -0.42266893 239 413
-0.27348873 -0.7998715 -0.40232313 240 414
-0.27543187 -0.80776447 -0.39072704 240 415
-0.27733648 -0.8155005 -0.37901938 238 416
-0.28219658 -0.83529019 -0.37538135 235 417
-0.28727257 -0.85595942 -0.37181944 234 418
-0.28586328 -0.85017973 -0.3510763 236 419
-0.28763607 -0.85737753 -0.33876663 235 420
-0.289368 -0.86440885 -0.32635534 236 421
-0.29105881 -0.87127221 -0.31384474 228 422
-0.2927081 -0.8779664 -0.3012374 216 423
-0.49570906 -1.7053722 -0.57788002 216 429
-0.49821702 -1.7155414 -0.55333543 224 430
-0.50064367 -1.7253789 -0.52864778 215 431
-0.50632209 -1.7484722 -0.50922757 151 432
-0.48782414 -1.673016 -0.45176649 213 433
-0.48295444 -1.6531152 -0.41733098 228 434
-0.48493239 -1.661127 -0.39354783 234 435
-0.48683155 -1.6688175 -0.36965251 233 436
-0.48865154 -1.6761856 -0.34564966 229 437
-0.48673359 -1.668319 -0.3170386 229 438
-0.48837963 -1.6749785 -0.29304785 232 439
-0.48994622 -1.6813141 -0.26896423 231 440
-0.49143305 -1.6873246 -0.24479242 231 441
-0.49283978 -1.6930089 -0.22053705 230 442
-0.49067453 -1.6841371 -0.19298668 232 443
-0.49191001 -1.6891237 -0.16878171 238 444
-0.49306542 -1.6937841 -0.14450784 237 445
-0.49414048 -1.698117 -0.12016971 237 446
-0.49137041 -1.6867828 -0.093213364 239 447
-0.49227592 -1.6904254 -0.068980083 239 448
-0.4931013 -1.6937413 -0.044697061 239 449
-0.49384624 -1.6967298 -0.020368978 237 450
-0.49451074 -1.6993904 0.0039994717 236 451
-0.49889284 -1.7171966 0.026945561 238 452
0.1927478 -0.17055115 1.9364029 1874 0
0.16517986 -0.15875983 1.9418187 1856 1
0.13704193 -0.14600961 1.93777 1937 2
0.10938985 -0.13402805 1.9411365 1828 3
0.081706971 -0.12206811 1.9449751 1872 4
0.053945102 -0.10995965 1.9472926 1846 5
0.026195459 -0.097519234 1.9450927 1825 6
-0.0016728714 -0.085582808 1.9503446 1764 7
-0.029424973 -0.073211327 1.949082 1853 8
-0.057241015 -0.06092098 1.949285 1775 9
-0.085283585 -0.048714045 1.9519469 1853 10
-0.11332207 -0.036394481 1.9530761 1717 11
-0.1418359 -0.024121348 1.9576435 1885 12
-0.16989937 -0.01163571 1.9566969 1882 13
-0.19893202 0.00080129132 1.9621432 1734 14
-0.22724649 0.013405886 1.9610907 1767 15
-0.25523144 0.026052739 1.9575201 1811 16
-0.28445768 0.038775232 1.9602903 1726 17
-0.31363171 0.051591139 1.9615002 1745 18
-0.34399965 0.064614117 1.9670101 1657 19
-0.37229508 0.07749255 1.9621776 1766 20
-0.40275675 0.09071967 1.9655089 1702 21
-0.43025976 0.10354829 1.9566493 1650 22
-0.4386436 0.11282769 1.8820539 922 23
-0.43978694 0.12010369 1.7913926 865 24
-0.44188711 0.12692326 1.7125123 872 25
-0.43902355 0.13208517 1.6264248 1075 26
-0.44236907 0.13813634 1.5652114 1075 27
-0.44001615 0.14241263 1.4940076 1147 28
-0.43885487 0.14656115 1.4315745 1299 29
-0.42168978 0.14613841 1.3355476 1449 30
-0.42585292 0.15092838 1.2960676 1560 31
-0.42395639 0.15383649 1.2458887 1679 32
-0.42528701 0.15740868 1.2059357 1918 33
-0.42504478 0.16033414 1.1653255 1795 34
-0.42909497 0.1643483 1.1355648 1877 35
-0.4290624 0.16700414 1.0998073 1834 36
-0.42851517 0.16934887 1.0651667 1988 37
-0.42849234 0.17171438 1.0333543 2408 38
-0.43064749 0.17464682 1.0068526 2183 39
-0.43105716 0.17692122 0.97882295 2276 40
-0.43125191 0.17902362 0.95182317 2192 41
-0.42690104 0.17952709 0.91930592 2705 42
-0.42614239 0.18111037 0.89360958 2611 43
-0.42757133 0.18334734 0.87211943 2778 44
-0.42787254 0.18513404 0.84997755 2855 45
-0.42820874 0.18686563 0.82878119 2855 46
-0.42862204 0.1885621 0.80851197 2952 47
-0.43101636 0.19089851 0.79140878 2926 48
-0.43110991 0.1923776 0.77215636 3270 49
-0.43137884 0.19386813 0.75378919 3360 50
-0.43120724 0.19515307 0.7355659 3330 51
-0.43326491 0.19720191 0.72031957 3522 52
-0.43024057 0.1973598 0.70028883 3746 53
-0.42879024 0.19804272 0.68255156 3752 54
-0.42971355 0.19956231 0.6676724 3817 55
-0.43030608 0.20092851 0.65288746 3749 56
-0.43057144 0.20214236 0.63820487 3857 57
-0.42978543 0.20292969 0.62300485 4124 58
-0.43087387 0.20439781 0.60979313 4230 59
-0.43093768 0.20545217 0.59605193 4209 60
-0.43222076 0.20695046 0.5835892 4536 61
-0.43172023 0.20774099 0.57003796 4168 62
-0.43093386 0.20839615 0.55660599 4289 63
-0.43142974 0.20952801 0.54438686 4586 64
-0.43168062 0.21054593 0.53224182 4557 65
-0.42849687 0.21019194 0.5181213 5026 66
-0.42904121 0.21128564 0.50670022 4630 67
-0.42855188 0.21195361 0.4948566 4977 68
-0.42865056 0.21283948 0.48357809 4823 69
-0.42770642 0.21329255 0.47191781 5420 70
-0.42820421 0.2143102 0.46123928 5152 71
-0.42850488 0.21523696 0.45061016 5328 72
-0.42776388 0.21572916 0.43962896 5193 73
-0.42852297 0.21682009 0.42951721 5299 74
-0.42738622 0.21712589 0.41868806 5458 75
-0.42864081 0.21840212 0.40903008 5441 76
-0.42972958 0.21960463 0.39937717 5291 77
-0.42541137 0.21856003 0.387784 5744 78
-0.42614314 0.21959566 0.37825054 5912 79
-0.42847836 0.22129592 0.36931616 6022 80
-0.42978224 0.22256404 0.36005896 5700 81
-0.42826176 0.22264139 0.3500157 5819 82
-0.42924941 0.22376733 0.34078905 5859 83
-0.42739359 0.22368599 0.33088386 6299 84
-0.42986971 0.22543621 0.32211536 5757 85
-0.42949763 0.2259741 0.31270832 5871 86
-0.42987573 0.22682807 0.30351233 6139 87
-0.43010408 0.22761531 0.29432288 6236 88
-0.4292739 0.22794396 0.28500402 6358 89
-0.43011388 0.22898979 0.2759752 6156 90
-0.43172112 0.23036872 0.26703122 6284 91
-0.43044487 0.23049532 0.25777519 6165 92
-0.43176228 0.23174961 0.24878345 5683 93
-0.43202063 0.23254268 0.2396937 6166 94
-0.43304819 0.23367406 0.23063041 6136 95
-0.43210012 0.23393708 0.22149198 6044 96
-0.71084613 0.35793144 0.21238142 1706 97
-0.35665801 0.20181569 0.20470807 1172 98
-0.35808751 0.20302653 0.19696213 1176 99
-0.35756606 0.20337135 0.18925573 1084 100
-0.36056304 0.20529291 0.18127795 994 101
-0.36069739 0.20593831 0.17343159 1002 102
-0.36070403 0.20652887 0.16556239 905 103
-0.36329538 0.20829165 0.15730806 853 104
-0.36213547 0.20836252 0.14948767 1143 105
-0.36354792 0.2096049 0.14121822 993 106
-0.36213022 0.20956253 0.13338701 1017 107
-0.36237296 0.21028134 0.12519914 1042 108
-0.35981074 0.20971595 0.11759177 1919 109
-0.35447782 0.20786981 0.11072066 36 110
-0.36050397 0.21127072 0.1008784 3444 111
-0.37509036 0.21867156 0.088183701 22 112
-0.35974342 0.21217687 0.084238067 3268 113
-0.35828239 0.21213332 0.076166317 7156 114
-0.49190044 0.27546123 0.01969777 1843 115
-0.38148668 0.22435406 0.049980476 57 116
-0.36544904 0.21816063 0.037909329 749 118
-0.36321345 0.21778992 0.029629588 1128 119
-0.36333331 0.21854684 0.020203695 606 120
-0.36574766 0.22041492 0.0094907433 621 121
-0.36018601 0.21919826 -0.0071643442 669 123
-0.36281317 0.22121525 -0.018610597 629 124
-0.36439842 0.22274959 -0.029766276 593 125
-0.36889356 0.22572629 -0.04299821 591 126
-0.36763531 0.22591622 -0.052995428 627 127
-0.36541414 0.22564474 -0.062518612 596 128
-0.36682034 0.22717583 -0.074691072 506 129
-0.3672069 0.22822636 -0.08646895 594 130
-0.36734015 0.2291733 -0.098360226 541 131
-0.36428365 0.22854622 -0.10806994 598 132
0.027348254 0.040796179 0.086056724 161 176
0.029515699 0.039794523 0.086629927 1475 177
0.031772498 0.038676437 0.08823289 6531 178
0.033870421 0.037698776 0.088896602 7840 179
0.03652896 0.035952307 0.096534468 1728 180
0.038527094 0.034937385 0.09828829 613 181
1.9911513 -0.73266762 -1.1901231 135 243
2.263458 -0.85127336 -1.215026 115 246
2.349272 -0.88936877 -1.2132529 159 247
2.4331551 -0.92693114 -1.207182 128 248
2.5256419 -0.96815717 -1.2030172 100 249
2.629359 -1.0141436 -1.201634 79 250
2.7386568 -1.0626669 -1.1993415 96 251
2.8728998 -1.1215925 -1.2055284 58 252
2.9775059 -1.1688483 -1.1924144 55 253
3.1139631 -1.2293848 -1.190146 73 254
3.2630768 -1.295487 -1.1883229 62 255
3.4258251 -1.3676144 -1.1865928 43 256
3.6214283 -1.4537657 -1.191697 33 257
3.6825483 -1.4847084 -1.1394198 83 258
3.6938219 -1.4950352 -1.0679189 100 259
3.6800745 -1.4948876 -0.988451 104 260
5.0347219 -2.3092492 1.89174 74 294
4.7417741 -2.17977 1.8933088 68 295
4.4977474 -2.072474 1.9021294 63 296
4.2662401 -1.9703944 1.9066402 77 297
4.0640969 -1.8815689 1.914678 102 298
3.8816736 -1.8015472 1.923788 113 299
3.7162104 -1.7291038 1.9339069 154 300
3.5377953 -1.6499861 1.9313779 160 301
3.3820574 -1.5812527 1.9335618 179 302
3.2315657 -1.5146011 1.9325482 179 303
3.095154 -1.4543324 1.9335936 205 304
2.9741569 -1.4011649 1.9384196 238 305
2.8029675 -1.3231421 1.9077436 269 306
2.7031355 -1.2795541 1.9154662 319 307
2.5863197 -1.2273266 1.9081073 315 308
2.5003748 -1.1900032 1.9174483 381 309
2.4014773 -1.1460149 1.9142741 391 310
2.3132098 -1.1070296 1.915118 354 311
2.2272105 -1.0689216 1.9142781 499 312
2.1492724 -1.0346131 1.9165593 457 313
2.0848706 -1.0069182 1.9272132 543 314
2.0088844 -0.97317582 1.9255123 560 315
1.9392149 -0.94242662 1.9264739 633 316
1.8701981 -0.91180795 1.9253166 618 317
1.7844054 -0.8723405 1.9050454 698 318
1.7290161 -0.84831131 1.9113985 743 319
1.6701189 -0.82230753 1.9120905 794 320
1.609229 -0.79508716 1.9082956 749 321
1.5596906 -0.77365017 1.9146997 825 322
1.5110972 -0.75258356 1.9204656 791 323
1.4592164 -0.72963732 1.9205348 911 324
1.4119812 -0.70902574 1.9243476 970 325
1.3645309 -0.68816811 1.9261403 945 326
1.316928 -0.66709065 1.9258929 1053 327
1.2708986 -0.64672929 1.9259131 1059 328
1.2274745 -0.62766397 1.9278547 1076 329
1.1754299 -0.60368973 1.9151284 1148 330
1.1370953 -0.58717823 1.9211189 1264 331
1.0969483 -0.56955141 1.9229101 1177 332
1.0585877 -0.55282551 1.9261826 1332 333
0.97481948 -0.5149743 1.9155611 34 335
0.94065523 -0.50033391 1.9219022 79 336
0.89837456 -0.48081943 1.9110554 79 337
0.88233626 -0.47680759 1.9523448 82 338
0.84499931 -0.46008012 1.9495318 58 339
0.80843961 -0.44369644 1.9467189 41 340
0.76698869 -0.42414728 1.9304918 100 341
0.73718214 -0.41169611 1.9403331 57 342
0.71147299 -0.40182951 1.9605118 48 343
0.67871553 -0.38744092 1.9618896 72 344
0.63410592 -0.36513105 1.9274063 249 345
0.61289001 -0.3581591 1.959729 127 346
0.59858364 -0.35611483 2.0171063 568 347
0.549209 -0.32989475 1.9584888 384 348
0.50860345 -0.3092939 1.9231703 512 349
0.48306584 -0.29934254 1.9411973 1475 350
0.45350891 -0.28643471 1.9434448 1668 351
0.42341447 -0.27302882 1.9422069 1701 352
0.39351594 -0.25966352 1.9403515 1705 353
0.36418146 -0.24664733 1.9398301 1715 354
0.33369541 -0.23249477 1.9309129 1841 355
0.30598345 -0.2206918 1.9370257 1834 356
0.27779746 -0.20841978 1.9396657 1802 357
0.24963576 -0.19611788 1.9417615 1885 358
0.22110733 -0.18331806 1.9393622 1863 359
-1.1954749 -6.6676655 -0.30212635 211 0
-0.86809313 -4.711432 -0.091852129 218 1
-0.86663967 -4.6989365 -0.025094762 223 2
-0.87033015 -4.7170682 0.040269092 224 3
-0.86607963 -4.6879702 0.10691249 225 4
-0.86415845 -4.6727562 0.17266431 229 5
-0.86739957 -4.6882029 0.23830983 214 6
-1.2121235 -6.7285447 0.35411254 219 7
-1.2176851 -6.7560477 0.44954282 219 8
-1.2178758 -6.7517028 0.5441733 220 9
-1.2203437 -6.7608271 0.63971961 220 10
-1.2252537 -6.7843614 0.73686302 220 11
-1.2274481 -6.7918067 0.83335853 219 12
-1.2267624 -6.7822304 0.92846179 219 13
-1.2439508 -6.8780417 1.0365655 217 14
-1.2015171 -6.6224222 1.0994303 187 15
-1.1485223 -6.3050337 1.1459875 190 16
-1.0956197 -5.9886861 1.1840025 211 17
-1.0606747 -5.7783709 1.2324469 212 18
-1.010155 -5.4769258 1.2574565 211 19
-0.96983927 -5.235826 1.2867779 212 20
-0.92195749 -4.9507499 1.2996341 211 21
-0.89705378 -4.8007131 1.336826 213 22
-0.71453333 -3.7091212 1.4706589 220 29
-0.69718027 -3.6048756 1.4913783 221 30
-0.67474186 -3.4712315 1.4982888 220 31
-0.65489078 -3.3528192 1.5074905 221 32
-0.63744688 -3.2485533 1.5192424 222 33
-0.62270021 -3.1600776 1.5349065 223 34
-0.60781139 -3.0709093 1.5479535 223 35
-0.5929454 -2.9820061 1.5587666 224 36
-0.5781098 -2.8934119 1.5673556 222 37
-0.56576818 -2.819351 1.5807236 223 38
-0.55329037 -2.744612 1.5918368 223 39
-0.53871328 -2.6578863 1.5946647 222 40
-0.52630347 -2.5837712 1.6019728 223 41
-0.51407999 -2.5108387 1.6079652 225 42
-0.50412798 -2.4510648 1.6196606 225 43
-0.4943389 -2.3923097 1.6304678 226 44
-0.48442084 -2.3328979 1.6393856 228 45
-0.4723444 -2.2612123 1.638917 224 46
-0.46466205 -2.2147734 1.6530776 226 47
-0.45712188 -2.1692054 1.6667746 225 48
-0.44745094 -2.1115351 1.6709577 229 49
-0.43979099 -2.065414 1.6819239 227 50
-0.43018559 -2.0082772 1.6836171 227 51
-0.42270279 -1.9632982 1.6930251 227 52
-0.41509607 -1.917675 1.7008499 229 53
-0.40560779 -1.861441 1.698959 229 54
-0.40021095 -1.8284756 1.7148137 225 55
-0.39280024 -1.7841481 1.7203634 229 56
-0.38541478 -1.7400252 1.7249665 229 57
-0.37805748 -1.6961238 1.7286302 228 58
-0.37073135 -1.6524618 1.7313614 231 59
-0.36534908 -1.6198004 1.7434584 230 60
-0.35807166 -1.5765253 1.7444968 229 61
-0.3508338 -1.5335381 1.7446241 227 62
-0.34547988 -1.501169 1.754582 231 63
-0.33830613 -1.458658 1.7530556 229 64
-0.33118004 -1.4164815 1.7506411 229 65
-0.32776308 -1.3950467 1.7704091 230 66
-0.32069013 -1.3532705 1.7665308 230 67
-0.31539348 -1.3214308 1.7732191 230 68
-0.31021765 -1.2902977 1.7800905 232 69
-0.30315453 -1.2487577 1.7731404 230 70
-0.29802155 -1.2179534 1.7787346 233 71
-0.2892724 -1.1647956 1.7995213 234 73
-0.28414822 -1.1341331 1.8035659 231 74
-0.28057691 -1.1120108 1.8193765 234 75
-0.27535453 -1.0808697 1.8216152 233 76
-0.27025169 -1.0504222 1.8241318 233 77
-0.26507029 -1.0195884 1.8252656 234 78
-0.2599127 -0.98892748 1.8258505 234 79
-0.25487375 -0.95895314 1.8267497 234 80
-0.25122881 -0.93653572 1.8401055 234 81
-0.24611917 -0.9062466 1.8391902 232 82
-0.24112675 -0.87663317 1.8386232 235 83
-0.23744497 -0.85406387 1.8508255 234 84
-0.23239526 -0.82421541 1.8484427 234 85
-0.22868484 -0.80151856 1.8599102 235 86
-0.22375178 -0.7723645 1.8575004 234 87
-0.22001457 -0.74955028 1.8682415 236 88
-0.21504179 -0.72026539 1.8640161 233 89
-0.21010813 -0.69124168 1.8592935 234 90
-0.20635733 -0.66841263 1.868898 234 91
-0.20154211 -0.64009005 1.8642137 235 92
-0.19777405 -0.61719996 1.8731019 235 93
-0.19398293 -0.59419167 1.8816689 233 94
-0.1891616 -0.56596005 1.8747845 234 95
-0.18536064 -0.54293478 1.8826338 237 96
-0.181539 -0.51980531 1.8901603 235 97
-0.17684895 -0.49236995 1.8829892 236 98
-0.17302057 -0.46924165 1.8898076 234 99
-0.16917387 -0.44602317 1.8963016 236 100
-0.16530955 -0.422719 1.90247 236 101
-0.16066293 -0.39568895 1.8927511 235 102
-0.1568009 -0.37243906 1.8982151 237 103
-0.15292361 -0.34911752 1.903353 236 104
-0.14903182 -0.32572874 1.908164 236 105
-0.14512625 -0.30227721 1.9126472 236 106
-0.14065665 -0.27635154 1.9020077 235 107
-0.13675946 -0.25298965 1.9057999 235 108
-0.13285083 -0.22957888 1.9092647 236 109
-0.12893152 -0.20612366 1.9124014 235 110
-0.12500229 -0.18262851 1.9152095 235 111
-0.11711703 -0.13553625 1.9198377 236 113
-0.1131625 -0.11194813 1.9216567 234 114
-0.10948045 -0.089130238 1.9381218 236 115
-0.10547856 -0.06529858 1.9392897 233 116
-0.10147122 -0.041453846 1.940124 236 117
-0.097459182 -0.017600538 1.9406242 237 118
-0.093443215 0.0062567508 1.9407905 238 119
-0.089538932 0.030357478 1.9566203 239 120
-0.085480675 0.054426961 1.9561139 238 121
-0.081420772 0.078486733 1.9552704 238 122
-0.077359989 0.10253216 1.9540901 237 123
-0.073299125 0.12655871 1.9525731 239 124
-0.069238916 0.15056176 1.9507198 237 125
-0.065081187 0.1759887 1.9634598 236 126
-0.060990248 0.20013419 1.9609137 237 127
-0.056723349 0.22622389 1.9739053 237 128
-0.052602593 0.25050572 1.970655 236 129
-0.048486456 0.2747404 1.9670647 238 130
-0.044104975 0.30138743 1.9779294 236 131
-0.039966218 0.32571518 1.9736261 236 132
-0.035472736 0.35303846 1.9846838 237 133
-0.030914348 0.38072243 1.995314 235 134
-0.026726451 0.40527764 1.9898986 236 135
-0.02210689 0.43322062 1.9987276 235 136
-0.017905042 0.45781606 1.9925768 238 137
-0.013171636 0.48644248 2.001534 239 138
-0.0084145889 0.51512694 2.0090685 236 139
-0.0041794702 0.53985363 2.00177 237 140
0.00069203973 0.56922281 2.0093927 237 141
0.0055771545 0.5985902 2.0155857 236 142
0.0098369643 0.62339574 2.0071182 235 143
0.014836803 0.65344703 2.0133591 236 144
0.019889623 0.68378425 2.0191026 236 145
0.024942502 0.71403861 2.0234103 233 146
0.030095309 0.74491102 2.0281434 233 147
0.035241254 0.7756595 2.0314384 236 148
0.040488862 0.80703497 2.0351362 233 149
0.045722656 0.83824509 2.037394 233 150
0.05105973 0.87009037 2.0400314 232 151
0.05740919 0.9086957 2.0555952 235 152
0.062863983 0.94117171 2.0570502 236 153
0.068290658 0.97339714 2.0570636 234 154
0.073823296 1.0062711 2.0574071 236 155
0.08048781 1.0465907 2.0702672 237 156
0.086125307 1.0800154 2.0693688 234 157
0.092952959 1.1212192 2.0807662 237 158
0.098609351 1.154633 2.0777445 240 159
0.1055902 1.19666 2.0876472 238 160
0.1114144 1.2310449 2.0841827 233 161
0.11726635 1.2655596 2.0801144 230 162
0.11766165 1.2646426 2.0237176 230 163
0.11925951 1.2716423 1.9807202 230 164
0.1220633 1.2865111 1.9499526 229 165
0.12337526 1.2918249 1.9071623 229 166
0.12746722 1.3150724 1.8889959 229 167
0.12553099 1.2997066 1.8221688 229 168
0.12942889 1.3217958 1.8038979 228 169
0.13017806 1.3238019 1.7616962 228 170
0.13230607 1.3346642 1.7310443 231 171
0.1343362 1.3449451 1.7003889 233 172
0.13637432 1.3553165 1.6704751 232 173
0.13659903 1.3542478 1.628958 232 174
0.1400601 1.3736994 1.6099375 229 175
0.14004067 1.371201 1.5687656 231 176
0.14336562 1.3898311 1.5495121 231 177
0.14127553 1.3744239 1.4977574 234 178
0.14443797 1.3920866 1.478464 233 179
0.14567643 1.3976934 1.4482744 231 180
0.14693969 1.4034905 1.4188297 233 181
0.14992449 1.4200751 1.3991351 232 182
0.1509079 1.4241742 1.3690629 231 183
0.15192205 1.4284986 1.3397309 234 184
0.15071398 1.4190304 1.3000892 233 185
0.15545931 1.4466143 1.2898115 233 186
0.15609854 1.4486889 1.2600741 232 187
0.15677646 1.4510357 1.2310684 233 188
0.1572355 1.452058 1.2016336 232 189
0.15972772 1.4656788 1.1812749 234 190
0.160164 1.4666069 1.1525508 233 191
0.16254535 1.4795579 1.1319919 234 192
0.16488102 1.4922272 1.111253 233 193
0.16496226 1.4910271 1.0821803 234 194
0.16718501 1.5030167 1.0612845 234 195
0.16725329 1.5017812 1.0329335 233 196
0.16936433 1.5130988 1.0118906 234 197
0.17142841 1.524129 0.99069101 234 198
0.17344517 1.5348688 0.96933842 234 199
0.17541417 1.5453167 0.94783694 235 200
0.17265239 1.5268776 0.91260755 233 201
0.17920753 1.5653286 0.90440404 233 202
0.17865574 1.5604131 0.87609178 235 203
0.17802212 1.5550277 0.84805375 232 204
0.18212289 1.5784649 0.83226043 233 205
0.18135947 1.572318 0.8043825 233 206
0.18295446 1.5805151 0.78236878 234 207
0.18695241 1.6032856 0.7656036 233 208
0.18599552 1.5960058 0.73800594 232 209
0.18744099 1.6032963 0.71566534 232 210
0.18883607 1.6102817 0.69322425 231 211
0.19018051 1.6169608 0.67068708 231 212
0.19399196 1.6385337 0.652367 232 213
0.19524598 1.644653 0.62943715 230 214
0.19390726 1.6351467 0.60254133 231 215
0.19759807 1.6559515 0.5833298 232 216
0.196134 1.6457169 0.55670923 232 217
0.19974086 1.6659898 0.53692162 231 218
0.19908327 1.6592213 0.48744604 230 220
0.19996136 1.6630923 0.46423855 229 221
0.20078668 1.6666467 0.44097856 231 222
0.20417166 1.6855226 0.41981757 232 223
0.20489767 1.6884695 0.39624673 230 224
0.20556998 1.6910952 0.37263632 232 225
0.065410338 0.85281903 0.26934981 223 226
0.039987043 0.70044547 0.24508201 240 227
0.035079688 0.67062175 0.23328672 236 228
0.032613806 0.65539002 0.22311309 234 229
0.032768428 0.6557796 0.21398109 223 230
0.087114014 0.97842324 0.21273425 228 231
0.089937799 0.99441063 0.19924486 216 232
0.11847938 1.163059 0.18477127 223 233
0.12126449 1.1786417 0.16825669 221 234
0.16797611 1.4533933 0.12278286 227 236
0.16533238 1.4365735 0.1034231 230 237
0.16530353 1.4352412 0.083361268 229 238
0.16788876 1.4493529 0.06193988 228 239
0.16776627 1.4474541 0.041702151 228 240
0.16759714 1.44528 0.021492481 229 241
0.16987017 1.4574991 -0.00059652328 228 242
0.16960514 1.4547479 -0.020943761 229 243
0.17194164 1.4673036 -0.04372713 229 244
0.17157885 1.4639639 -0.064208508 231 245
0.17380896 1.4758555 -0.087553263 236 246
0.16560525 1.4264797 -0.098960906 236 247
0.15228981 1.3472016 -0.10255983 228 248
0.14915395 1.3276982 -0.11779448 227 249
0.1384612 1.2639774 -0.12168455 229 250
0.1455653 1.3044645 -0.15103406 223 251
0.14233387 1.2844657 -0.1650238 226 252
0.11766084 1.137305 -0.17620003 218 255
0.11197812 1.1032087 -0.18226749 219 256
0.10869584 1.0831324 -0.19238183 214 257
0.10555763 1.0639201 -0.20234787 216 258
0.099866368 1.0299027 -0.20617598 219 259
0.099079929 1.0244023 -0.22052082 218 260
0.07309524 0.86950976 -0.23071012 222 265
0.069784813 0.84956199 -0.23571604 221 266
0.066475175 0.82964659 -0.24024481 222 267
0.060899846 0.79671067 -0.23728171 223 268
0.060014836 0.7908141 -0.24835896 222 269
0.038487628 0.66271508 -0.25295061 218 275
0.037551038 0.65662098 -0.26215044 221 276
0.034470916 0.63830113 -0.26265824 224 277
0.031265609 0.61929649 -0.26215565 225 278
0.02821818 0.60122049 -0.26180482 221 279
0.027254097 0.59501296 -0.27014291 223 280
0.024087779 0.57630545 -0.26850426 222 281
0.020944275 0.55775863 -0.26643109 223 282
0.01795873 0.54013777 -0.26456708 224 283
0.016981192 0.53389978 -0.27204964 225 284
0.013890781 0.51573199 -0.26887587 225 285
0.010957889 0.49848503 -0.26595387 226 286
0.0099723041 0.49223304 -0.27285311 227 287
0.0089701712 0.48588789 -0.27966428 226 288
0.0059504956 0.46821654 -0.27517062 226 289
0.0049402341 0.46184266 -0.28164536 225 290
0.0020844266 0.44514009 -0.27722442 225 291
0.0010667667 0.43874097 -0.28337586 227 292
-0.0018670112 0.42165336 -0.2776089 225 293
-0.0028882995 0.41525173 -0.28343141 225 294
-0.0057727918 0.39849278 -0.27704263 223 295
-0.0067954734 0.39210162 -0.28254092 224 296
-0.0078315213 0.38563633 -0.28794932 229 297
-0.008880727 0.37909812 -0.29326677 229 298
-0.011574723 0.3634862 -0.28660536 228 299
-0.012623429 0.35696891 -0.29161271 227 300
-0.015368745 0.3411313 -0.28358451 228 301
-0.01641313 0.33465782 -0.28827909 229 302
-0.017469037 0.32812116 -0.29288268 231 303
-0.020034 0.3133516 -0.28490478 231 304
-0.021084651 0.30686343 -0.28921029 232 305
-0.022145942 0.30031732 -0.29342464 230 306
-0.023217663 0.29371461 -0.29754701 230 307
-0.024299607 0.28705654 -0.30157661 231 308
-0.0268385 0.27255687 -0.29161087 231 309
-0.027909297 0.26598212 -0.29534465 228 310
-0.060058482 0.093194023 0.017724261 215 311
-0.060609754 0.089951262 0.018256664 226 312
-0.061238803 0.086301811 0.019741789 231 313
-0.062181205 0.081004165 0.024899915 231 314
-0.062391154 0.079590261 0.022011533 230 315
-0.06253542 0.078514077 0.018219128 228 316
-0.063588545 0.072678544 0.025443047 229 317
-0.06417264 0.069314919 0.027255476 230 318
-0.064957827 0.064922146 0.031916678 230 319
-0.06455975 0.066642292 0.02079536 233 320
-0.064937927 0.064346038 0.019922078 228 321
-0.065382428 0.061712403 0.020024329 230 322
-0.065824881 0.059093352 0.020167902 230 323
-0.066324957 0.056189578 0.021304563 231 324
-0.066933751 0.052753754 0.024402469 231 325
-0.067804597 0.048043348 0.03236489 230 326
-0.067891859 0.047210693 0.026931554 230 327
-0.0689229 0.041781299 0.038907543 230 328
-0.069409251 0.039031386 0.0412938 231 329
-0.070346534 0.033750039 0.046208605 226 331
-0.07210888 0.025189405 0.079113424 224 332
-0.076816253 0.0023170859 0.16689813 222 350
-0.076874509 0.0014521943 0.15793271 220 351
-0.080688544 -0.022213915 0.14035207 106 382
-0.080874741 -0.023349307 0.1398387 96 383
-0.081064306 -0.024503423 0.13934803 74 384
-0.081471972 -0.026708327 0.1430779 116 389
-0.081580535 -0.027328385 0.14350283 106 390
-0.081776194 -0.028512469 0.14311944 96 391
-0.081974819 -0.029712694 0.14276069 96 392
-0.10085388 -0.1492455 0.014481738 222 399
-0.17030759 -0.58650714 -0.4145146 215 403
-0.17176054 -0.59465444 -0.40621036 220 404
-0.17319539 -0.60268766 -0.39779264 221 405
-0.17645431 -0.62217671 -0.40015835 220 406
-0.17963046 -0.6411103 -0.40141743 220 407
-0.19334346 -0.7238344 -0.42376351 219 410
-0.19680417 -0.74437523 -0.42359668 218 411
-0.19829638 -0.75262761 -0.41308123 217 412
-0.20557058 -0.79682446 -0.4303779 217 413
-0.20912737 -0.8178463 -0.4286648 218 414
-0.21464321 -0.85098189 -0.43525308 218 415
-0.2161746 -0.85938042 -0.423244 216 416
-0.22388285 -0.9059816 -0.43754697 215 417
-0.22956049 -0.9399454 -0.44184369 215 418
-0.23529407 -0.97419304 -0.44530565 216 419
-0.241081 -1.0087087 -0.44792575 215 420
-0.25117713 -1.0696896 -0.46568716 213 421
-0.25724086 -1.1057582 -0.46673906 211 422
-0.26321149 -1.1411941 -0.4664107 212 423
-0.81815565 -4.511826 -1.7665737 212 431
-0.82076836 -4.5233212 -1.6971223 225 432
-0.82320732 -4.5337877 -1.6277201 227 433
-0.82790381 -4.557991 -1.5640552 228 434
-0.83016467 -4.5674152 -1.4949319 228 435
-0.829795 -4.5609188 -1.4206194 225 436
-0.83633834 -4.5963426 -1.3613229 227 437
-0.83809972 -4.6028051 -1.2922655 228 438
-0.83953512 -4.6073217 -1.2230315 228 439
-0.84095699 -4.6117821 -1.1542273 228 440
-0.84205246 -4.6142979 -1.0853024 228 441
-0.84297878 -4.6158204 -1.0165608 221 442
-1.099154 -6.1549931 -1.3266656 214 443
-1.1007924 -6.1595187 -1.2367622 213 444
-1.1522644 -6.4637494 -1.2122238 210 445
-1.1538178 -6.467557 -1.1186329 211 446
-0.85818768 -4.6872811 -0.69084752 200 447
-0.86577803 -4.7288513 -0.6303196 211 448
-0.86560768 -4.7238569 -0.56152117 213 449
-0.86543459 -4.7188725 -0.49315727 219 450
-0.86755002 -4.7276044 -0.42698371 228 451
-0.86689222 -4.7197556 -0.35887444 221 452
-0.86869973 -4.7266588 -0.2926982 221 453
-0.87035626 -4.7326598 -0.22643021 223 454
0.15517649 -0.12600295 1.9454041 1872 0
0.12595856 -0.11763142 1.9468596 1923 1
0.096713766 -0.1091442 1.9467885 1796 2
0.067551896 -0.10078436 1.9481797 1905 3
0.0383811 -0.092384607 1.9490423 1895 4
0.0092102289 -0.083947465 1.9493763 1794 5
-0.019684494 -0.07498917 1.9412007 1857 6
-0.049246624 -0.067139074 1.9514496 1856 7
-0.077946283 -0.058233552 1.9432201 1859 8
-0.10754696 -0.050014973 1.9484119 1927 9
-0.13673529 -0.041456066 1.9470942 1868 10
-0.16660547 -0.033082627 1.9512005 1782 11
-0.19611189 -0.02449557 1.9507899 1841 12
-0.22624716 -0.015967159 1.9537911 1726 13
-0.25570023 -0.0072485339 1.9512999 1798 14
-0.28586259 0.0014361385 1.9522004 1795 15
-0.31572446 0.01021211 1.9505756 1780 16
-0.34474578 0.019059451 1.94449 1760 17
-0.37597334 0.027896734 1.9476035 1760 18
-0.40715155 0.036830932 1.9491425 1635 19
-0.43769157 0.045827091 1.9471848 1707 20
-0.46884152 0.054905668 1.9465647 1701 21
-0.4974229 0.063889071 1.9367476 1765 22
-0.50767648 0.071484372 1.87134 734 23
-0.50571138 0.077594772 1.7767909 956 24
-0.50384218 0.083098352 1.6912239 838 25
-0.50358915 0.088244326 1.6173525 968 26
-0.50365257 0.092993893 1.5503907 969 27
-0.50085604 0.097015806 1.4819877 1171 28
-0.49958763 0.10086688 1.4222755 1263 29
-0.48259088 0.10223791 1.3330986 1308 30
-0.48153171 0.10543705 1.2834723 1366 31
-0.4780679 0.10803925 1.2324233 1487 32
-0.4805052 0.11132559 1.1959159 1675 33
-0.48043475 0.11405528 1.1569926 1688 34
-0.48119745 0.11676204 1.1218141 1954 35
-0.4814488 0.11924273 1.0877358 1935 36
-0.47705546 0.12077756 1.0479779 2030 37
-0.47847465 0.12319976 1.0195217 2158 38
-0.47964802 0.12547877 0.99208295 2254 39
-0.48062393 0.12762924 0.9656527 2429 40
-0.48087201 0.12955528 0.93941122 2336 41
-0.47330388 0.12987639 0.90379906 2462 42
-0.47437885 0.13178012 0.88126773 2477 43
-0.47423735 0.13337463 0.85811967 2663 44
-0.47599795 0.13529044 0.83823162 2691 45
-0.47531953 0.13665016 0.81620228 2873 46
-0.47602621 0.13823971 0.79660559 3143 47
-0.47623286 0.13967383 0.77715665 3317 48
-0.47730353 0.14124557 0.75930619 3030 49
-0.47655067 0.14237964 0.74016488 3166 50
-0.47601745 0.14351536 0.72190177 3125 51
-0.47717163 0.1449839 0.70585501 3044 52
-0.47576973 0.14584559 0.68790448 3415 53
-0.47024634 0.1457302 0.66686368 3596 54
-0.4723911 0.14731552 0.65323073 4001 55
-0.47196189 0.14828402 0.63776118 4434 56
-0.47193798 0.14931661 0.62304854 3931 57
-0.47313115 0.15060849 0.60966212 4229 58
-0.47167018 0.15125005 0.59458447 4199 59
-0.46986148 0.15177912 0.57967204 4261 60
-0.47173843 0.15316713 0.56773186 4318 61
-0.47418323 0.15467878 0.55637312 4322 62
-0.47228429 0.15511715 0.54237336 3972 63
-0.47173795 0.15586329 0.52957046 4841 64
-0.47091904 0.15652241 0.51687986 4832 65
-0.46813491 0.15667182 0.50333631 4562 66
-0.46762249 0.1573673 0.49138936 4344 67
-0.46772799 0.15820283 0.47999707 4806 68
-0.4676058 0.15896709 0.46867847 5069 69
-0.46725866 0.15966058 0.45743844 5118 70
-0.46668938 0.16028374 0.44628173 5198 71
-0.4650102 0.16060646 0.43482101 5135 72
-0.46668938 0.16178823 0.42498851 4931 73
-0.46728817 0.162682 0.41479635 5516 74
-0.46497378 0.1628011 0.40361011 5839 75
-0.46609482 0.16381443 0.39387006 5718 76
-0.46612301 0.16453196 0.38383037 5656 77
-0.46504477 0.16494599 0.37354413 5492 78
-0.46563187 0.1657979 0.36389661 5723 79
-0.46418408 0.16609496 0.35374931 5600 80
-0.46442273 0.16684023 0.34418088 6160 81
-0.46355352 0.16727826 0.3344135 5779 82
-0.46533951 0.16843735 0.32534 6220 83
-0.46508005 0.1690328 0.31584716 5877 84
-0.46560445 0.16984059 0.30656695 6081 85
-0.46406761 0.17007248 0.29697594 6030 86
-0.46522412 0.17105016 0.28788602 5850 87
-0.4662272 0.17198497 0.27877337 6130 88
-0.46516284 0.17233655 0.26942769 5944 89
-0.46393916 0.1726383 0.26013416 5916 90
-0.46351722 0.17316358 0.25096765 6221 91
-0.46390077 0.17391697 0.24187891 5983 92
-0.4660522 0.1751785 0.23285572 6004 93
-0.46420881 0.17529228 0.22367819 5862 94
-0.4670147 0.17674904 0.2145786 6184 95
-0.46774492 0.17760904 0.20540442 5920 96
-0.46736053 0.17814572 0.19623038 6167 97
-0.46969691 0.17948179 0.18691176 6259 98
-0.46708694 0.17936622 0.17783342 5654 99
-0.46815017 0.18033428 0.16849671 5936 100
-0.47000572 0.18154329 0.15900226 5325 101
-0.4694182 0.18269424 0.14030072 5849 103
-0.46793881 0.18291636 0.13108395 5605 104
-0.46913418 0.18394876 0.12137926 5710 105
-0.46733692 0.18407859 0.11216402 5743 106
-0.46725771 0.18473352 0.10256921 5958 107
-0.46887365 0.18591397 0.092495628 5757 108
-0.46659115 0.1859031 0.08327961 5476 109
-0.46692505 0.18670256 0.073335201 5618 110
-0.46615884 0.18716781 0.063605264 5421 111
-0.46430567 0.18729882 0.054143459 5452 112
-0.46592239 0.1885217 0.04347235 3464 113
-0.20211512 0.1094266 0.079991475 1890 123
0.023773983 0.043068923 0.091889285 1269 177
0.026023898 0.042296559 0.093584828 4869 178
0.027959328 0.041822486 0.092349499 1450 179
0.029797034 0.041514836 0.089159913 4428 180
0.031939182 0.040835634 0.089979269 1168 181
2.2426329 -0.51621979 -1.1008205 141 245
2.3586175 -0.54882264 -1.1155026 111 246
2.4414241 -0.57340139 -1.1075561 104 247
2.5392716 -0.60198081 -1.1047313 163 248
2.6333132 -0.62983477 -1.096549 112 249
2.7251225 -0.65734488 -1.0840707 103 250
2.8419752 -0.69152004 -1.0800643 81 251
2.9727621 -0.72959381 -1.078079 83 252
3.0898645 -0.76443189 -1.0657151 80 253
3.2362196 -0.80721486 -1.0609875 75 254
3.3750329 -0.84837741 -1.0482337 112 255
3.5179145 -0.89095742 -1.0321205 48 256
3.6960421 -0.94326711 -1.0229843 42 257
3.9827847 -1.0250814 -1.0421314 30 258
4.1875019 -1.0855764 -1.0262966 38 259
4.4542055 -1.1633352 -1.020582 38 260
4.7544823 -1.2508873 -1.0140753 28 261
5.0941162 -1.3499428 -1.0063229 20 262
5.4826856 -1.4632818 -0.99729377 14 263
5.4255629 -1.6683061 2.1389697 36 294
5.1322432 -1.5832586 2.139354 57 295
4.8639898 -1.5054264 2.1389596 71 296
4.5816383 -1.4223886 2.1227639 89 297
4.3682685 -1.3607597 2.1264043 105 298
4.1859632 -1.3086071 2.1366422 122 299
3.9685383 -1.2445995 2.1232586 150 300
3.7906933 -1.1929104 2.1217482 154 301
3.6227443 -1.1439973 2.118901 164 302
3.4444273 -1.0912278 2.1040366 178 303
3.3019786 -1.0498421 2.1030498 209 304
3.1590841 -1.0079341 2.0964987 182 305
2.9759858 -0.95219636 2.0592513 297 306
2.8436029 -0.91297299 2.0475466 293 307
2.7428939 -0.8840915 2.052192 332 308
2.6209393 -0.84773064 2.0381935 358 309
2.512825 -0.81575668 2.0294685 370 310
2.428138 -0.79153836 2.0343435 416 311
2.3221612 -0.7597419 2.0193567 394 312
2.2600675 -0.74290806 2.0359991 442 313
2.1753478 -0.71802151 2.0315497 498 314
2.0995047 -0.69602954 2.0316298 536 315
2.0179493 -0.6718114 2.0236502 565 316
1.9479007 -0.65146714 2.0232637 576 317
1.8550313 -0.62273365 1.9978223 654 318
1.7935717 -0.60506088 1.9999878 675 319
1.7326441 -0.5874241 2.0004792 735 320
1.6696645 -0.56887293 1.9964511 804 321
1.6131754 -0.55254483 1.9972448 760 322
1.5572029 -0.53626096 1.9965429 869 323
1.5048676 -0.52119303 1.9981205 871 324
1.4517753 -0.50570273 1.9968271 882 325
1.4003993 -0.49072248 1.995708 978 326
1.3524241 -0.47691321 1.9972005 991 327
1.3048519 -0.46313679 1.9975045 1081 328
1.254401 -0.44810086 1.9917996 1088 329
1.199733 -0.43123251 1.9774702 1157 330
1.1574743 -0.41914529 1.9798701 1104 331
1.1139936 -0.40645689 1.9787762 1034 332
1.0724093 -0.39442456 1.9791844 1323 333
1.03021 -0.38202512 1.9769206 1192 334
0.99355835 -0.37183559 1.9831612 1308 335
0.95251542 -0.35970125 1.979903 782 336
0.92499059 -0.35328591 2.0020952 72 337
0.87974715 -0.33912775 1.9874363 77 338
0.84545392 -0.32965031 1.9940743 38 339
0.79871243 -0.31447101 1.9711123 182 340
0.7571556 -0.3014214 1.9570091 223 341
0.73469406 -0.29714757 1.9887259 137 342
0.70451158 -0.2893095 2.0016918 185 343
0.66426659 -0.27654186 1.9861941 355 344
0.62352473 -0.2633006 1.9660332 282 345
0.59852982 -0.25788999 1.9920607 163 346
0.57004446 -0.25077173 2.0082471 118 347
0.52319247 -0.23371156 1.9591184 425 348
0.49485594 -0.22647615 1.9730358 1575 349
0.4606384 -0.21586742 1.9633512 1639 350
0.42842361 -0.20626819 1.9597332 1699 351
0.3974812 -0.19733645 1.9603395 1790 352
0.3666589 -0.18839805 1.9603581 1723 353
0.33463162 -0.1785156 1.951962 1738 354
0.30421236 -0.16961016 1.9507923 1730 355
0.27447909 -0.16114163 1.9529912 1770 356
0.24453908 -0.15243499 1.952668 1769 357
0.21450159 -0.14352097 1.9498103 1906 358
0.18489531 -0.13490281 1.9493694 1788 359
-0.83554697 -6.8828764 -0.23366857 214 0
-0.83613628 -6.8880186 -0.13821143 214 1
-0.83658123 -6.8918529 -0.042692006 215 2
-0.83863735 -6.9102783 0.052556008 215 3
-0.84043992 -6.9264069 0.14827684 214 4
-0.8404513 -6.9263144 0.24430126 214 5
-0.84207332 -6.9408064 0.34066117 212 6
-0.84343904 -6.9529772 0.43739787 214 7
-0.84301299 -6.9489222 0.53376329 215 8
-0.84419405 -6.9594197 0.63107002 215 9
-0.84522635 -6.9685683 0.72873294 216 10
-0.84599948 -6.9753704 0.82664281 216 11
-0.84498453 -6.9659824 0.92328179 218 12
-0.84894753 -7.0016627 1.0253179 218 13
-0.84926456 -7.0043316 1.1242745 218 14
-0.85127538 -7.0223346 1.2259305 211 15
