# .PCD v0.7 - Point Cloud Data file format
VERSION 0.7
FIELDS x y z intensity index
SIZE 4 4 4 4 4
TYPE F F F F F
COUNT 1 1 1 1 1
WIDTH 1159
HEIGHT 1
VIEWPOINT 0 0 0 1 0 0 0
POINTS 1159
DATA ascii
-0.31796399 0.65874565 0.88309926 2111 57
-0.31745371 0.66005826 0.86057818 2486 58
-0.31707782 0.66155487 0.83886367 2126 59
-0.31798822 0.66533738 0.81978208 2331 60
-0.31870791 0.66873419 0.80076152 2042 61
-0.31691781 0.66749895 0.77826768 2050 62
-0.31801948 0.67151213 0.76063401 2222 63
-0.3185578 0.67445982 0.74247015 2161 64
-0.3197183 0.67852449 0.72547007 2264 65
-0.31629744 0.6740824 0.70262599 2279 66
-0.31669807 0.67666823 0.68531442 2048 67
-0.31652826 0.67816496 0.6675638 2212 68
-0.31619212 0.67932039 0.64991504 2309 69
-0.31527641 0.67936081 0.63190317 2252 70
-0.31670302 0.68376046 0.61678308 2498 71
-0.3158924 0.68394244 0.59942383 2692 72
-0.31704387 0.68779248 0.58432621 2664 73
-0.31550604 0.68655092 0.56674862 2520 74
-0.31638423 0.68985105 0.55171382 2325 75
-0.31584018 0.69044101 0.53553694 2547 76
-0.31645691 0.69321722 0.52054054 2378 77
-0.31476831 0.69158727 0.50381911 2534 78
-0.31512365 0.69383401 0.48891622 2499 79
-0.3144756 0.69414854 0.4734019 2381 80
-0.31369731 0.69419545 0.45797321 2706 81
-0.31500512 0.69823676 0.44403267 2510 82
-0.31575581 0.7012049 0.42975843 2856 83
-0.31505406 0.7013641 0.41471386 2503 84
-0.31557021 0.70386678 0.40042877 2599 85
-0.31552351 0.70527452 0.38590807 2587 86
-0.22159237 0.52529407 0.31997159 883 88
-0.22512051 0.53328633 0.31052715 899 89
-0.19868854 0.48472729 0.27177784 3703 92
-0.20233431 0.49290946 0.26275906 282 93
-0.19958648 0.48851433 0.2524122 408 94
-0.19811547 0.48662055 0.24243073 3034 95
-0.1983712 0.48813471 0.23270038 2930 96
-0.17109609 0.43504083 0.22160766 234 97
-0.24044511 0.57378757 0.2135105 379 98
-0.13989395 0.37470722 0.20500299 1290 99
-0.13368446 0.36309934 0.19783671 242 100
-0.27302673 0.64789301 0.12339938 109 105
-0.2664499 0.63732541 0.099098988 307 107
-0.26500013 0.63574755 0.086468913 312 108
-0.26692188 0.64102471 0.072384998 358 109
-0.26525983 0.63903069 0.059697703 510 110
-0.26350024 0.63683796 0.047056362 698 111
-0.26590887 0.64317453 0.032089293 262 112
-0.26562509 0.64402854 0.018364683 296 113
-0.26522216 0.64465362 0.0045638531 394 114
-0.26469916 0.64504713 -0.0093084425 393 115
-0.27568111 0.66920835 -0.031777948 17 116
-0.26864633 0.65621555 -0.041423544 102 117
-0.26648915 0.65329581 -0.054681316 318 118
-0.26584902 0.65353435 -0.069307223 200 119
-0.26387101 0.65100557 -0.082899973 265 120
-0.26496759 0.65490794 -0.099559441 289 121
-0.26628733 0.6593191 -0.11684836 314 122
-0.26312843 0.65437436 -0.1297868 287 123
-0.26219234 0.65410841 -0.14522617 231 124
-0.258816 0.64871913 -0.15804709 254 125
-0.2617746 0.65673339 -0.17866473 183 126
-0.26224735 0.6595481 -0.19680469 228 127
-0.26178765 0.66042811 -0.21416511 236 128
-0.26078534 0.66019094 -0.23115768 262 129
-0.25997296 0.66039675 -0.2487811 222 130
0.048537102 0.012961915 0.079450443 63 177
0.049900282 0.0094833393 0.086879052 154 178
0.050826892 0.007882854 0.08453542 1039 179
0.051903121 0.0054711718 0.087162077 39 180
0.28178474 -0.40979069 -0.31816703 88 229
0.28656188 -0.41989017 -0.31236613 59 230
0.2906298 -0.42875451 -0.30486929 467 231
0.29259259 -0.43389857 -0.29286277 1578 232
0.29719728 -0.44371346 -0.28649807 176 233
0.30842283 -0.4653495 -0.29315001 913 234
0.31054208 -0.47078791 -0.28130609 557 235
0.31723046 -0.48441547 -0.27814382 649 236
0.32684511 -0.50335717 -0.27986866 154 237
0.34318864 -0.53454137 -0.29261404 199 238
0.35527048 -0.55814624 -0.29669172 443 239
0.35610834 -0.56138831 -0.28144407 1505 240
0.36023897 -0.57061172 -0.27167898 1128 241
0.37589821 -0.60095137 -0.2794283 132 242
0.37764922 -0.60588557 -0.26537764 1747 243
0.37729698 -0.60693079 -0.24848546 965 244
0.39550519 -0.64221388 -0.25744939 54 245
1.3803393 -2.4805608 -1.419849 86 248
1.446152 -2.6097507 -1.4361767 81 249
1.4949522 -2.7076342 -1.4280728 61 250
1.5652171 -2.8461366 -1.4399639 73 251
1.6316518 -2.9779885 -1.4425026 65 252
1.7110766 -3.1348345 -1.4531577 42 253
1.8045264 -3.3187981 -1.47129 41 254
1.8877133 -3.4840643 -1.4728557 31 255
1.9845444 -3.6758687 -1.4801836 28 256
2.1099052 -3.9227006 -1.5040342 30 257
2.3281918 -4.3477039 -1.5919884 15 258
2.4106953 -4.5150051 -1.5607152 9 259
2.514092 -5.0452557 1.5805353 48 292
2.3531015 -4.7261267 1.5904299 73 293
2.1688414 -4.3578548 1.5725716 88 294
2.052707 -4.128356 1.5866033 95 295
1.9548382 -3.9356215 1.604899 129 296
1.8728755 -3.7750127 1.6279812 139 297
1.7930454 -3.618181 1.6465676 151 298
1.7169952 -3.4685707 1.6622988 192 299
1.6487231 -3.3345592 1.6792973 178 300
1.5809243 -3.2009943 1.6915089 218 301
1.5116799 -3.0638545 1.696949 238 302
1.454772 -2.9520397 1.7100503 284 303
1.4056423 -2.8561409 1.7274919 318 304
1.3572141 -2.7613442 1.7420948 340 305
1.2811414 -2.6076801 1.7190329 354 306
1.2341374 -2.5149808 1.7265269 367 307
1.1868106 -2.4212112 1.7298775 382 308
1.1505339 -2.3506181 1.7448561 424 309
1.108005 -2.2663767 1.7480758 504 310
1.0762109 -2.2048118 1.7641602 524 311
1.0372305 -2.1275508 1.7666482 561 312
1.002455 -2.0590382 1.7728686 623 313
0.97072142 -1.9968305 1.7815642 616 314
0.93824089 -1.9327505 1.7865167 697 315
0.90640104 -1.8697991 1.7900645 705 316
0.8794235 -1.8172187 1.8003978 716 317
0.84370428 -1.7452428 1.791271 798 318
0.81758648 -1.6940774 1.7987528 744 319
0.79167837 -1.6431723 1.8047209 868 320
0.76629692 -1.5932298 1.8098673 899 321
0.74203104 -1.5455689 1.8156264 950 322
0.71971107 -1.5020723 1.8242352 934 323
0.69526845 -1.4536381 1.8259096 965 324
0.67385966 -1.411845 1.8334689 1015 325
0.65096945 -1.3665295 1.8354516 1078 326
0.62937284 -1.3239663 1.8391705 1096 327
0.60900521 -1.2840418 1.8447767 1071 328
0.58753085 -1.241407 1.8454537 1251 329
0.565795 -1.1979704 1.8434023 1150 330
0.54695404 -1.1610718 1.84891 1232 331
0.52685064 -1.1210659 1.8486419 1244 332
0.5078696 -1.0835199 1.8505818 1327 333
0.49081263 -1.0503836 1.8581653 1374 334
0.47361785 -1.0168046 1.8641175 1307 335
0.45529032 -0.9803654 1.8641908 1444 336
0.4389278 -0.94853389 1.8710378 1453 337
0.42129898 -0.91348332 1.871103 1516 338
0.40512717 -0.8818723 1.8764129 1494 339
0.38903573 -0.85034573 1.8809937 1490 340
0.37168053 -0.81549692 1.8777463 1622 341
0.35550436 -0.78346133 1.8790319 1571 342
0.34053588 -0.75440454 1.8859026 1628 343
0.32515877 -0.72418773 1.8894119 1679 344
0.30972388 -0.69369209 1.8913343 1638 345
0.29491794 -0.66475934 1.8962781 1687 346
0.27978688 -0.63482755 1.8978097 1735 347
0.26510355 -0.60600913 1.9015002 1739 348
0.25091359 -0.57849848 1.9083515 1749 349
0.23561093 -0.54763854 1.9042039 1695 350
0.22132576 -0.51961899 1.9079632 1793 351
0.20699641 -0.49135271 1.9101843 1779 352
0.19311956 -0.46442375 1.9166383 1827 353
0.17824653 -0.43405727 1.9089992 1800 354
0.16439828 -0.40696743 1.9133465 1803 355
0.15056342 -0.37984812 1.917151 1858 356
0.13684019 -0.35309729 1.9223732 1814 357
0.12283389 -0.32501784 1.9201859 1922 358
0.1092762 -0.29889244 1.928274 1839 359
-0.39575958 -0.035830978 0.18312399 235 0
-0.39965129 -0.037321772 0.18839307 238 1
-0.40734285 -0.039804045 0.19375131 235 2
-0.52820051 -0.071677968 0.20028357 221 3
-0.52793324 -0.072273165 0.20751995 229 4
-0.54303581 -0.07689786 0.21532547 233 5
-0.54255998 -0.077458769 0.22277643 235 6
-0.55645525 -0.081825122 0.23117091 235 7
-0.57117665 -0.086449593 0.24004838 236 8
-0.55496335 -0.082842156 0.24645378 237 9
-0.55406356 -0.083309621 0.25408143 238 10
-0.55306154 -0.083749592 0.26169801 237 11
-0.56726414 -0.08831653 0.27141118 236 12
-0.56602347 -0.088712364 0.27921951 236 13
-0.56467819 -0.089079663 0.28701192 236 14
-0.56322873 -0.089418396 0.2947869 238 15
-0.56167513 -0.089728445 0.30254295 235 16
-0.56001776 -0.090009779 0.31027862 237 17
-0.55825698 -0.090262339 0.31799239 236 18
-0.55639321 -0.090486094 0.32568276 238 19
-0.53947914 -0.086460322 0.32950664 235 20
-0.55235779 -0.090846971 0.34098762 236 21
-0.564089 -0.094948813 0.35260063 238 22
-0.54791445 -0.091092095 0.35618138 238 23
-0.55932128 -0.095140934 0.36813134 238 24
-0.55678225 -0.095192373 0.375848 237 25
-0.54049253 -0.091242462 0.37873828 236 26
-0.55139625 -0.095205948 0.39117649 237 27
-0.56295574 -0.099403173 0.40431255 238 28
-0.55992824 -0.099333704 0.41208899 237 29
-0.55356383 -0.099103123 0.42751613 237 31
-0.550228 -0.098942056 0.43516392 238 32
-0.56076711 -0.10296829 0.44931346 235 33
-0.55713493 -0.10274039 0.45706868 238 34
-0.55339998 -0.10248131 0.46477383 237 35
-0.54956269 -0.10219103 0.47242761 238 36
-0.5583601 -0.10579722 0.48691094 237 37
-0.554223 -0.10543627 0.49464017 238 38
-0.5499835 -0.1050436 0.50231224 238 39
-0.54564261 -0.10461928 0.5099256 238 40
-0.55435294 -0.10831152 0.52559173 238 41
-0.54969698 -0.10781185 0.53327245 237 42
-0.55705225 -0.11114509 0.54884744 238 43
-0.55208212 -0.11056814 0.55657178 238 44
-0.54701012 -0.10995848 0.56422704 238 45
-0.54183716 -0.10931623 0.5718118 238 46
-0.54899162 -0.11270402 0.58854723 238 47
-0.54349053 -0.11197998 0.59616554 239 48
-0.54929525 -0.11499889 0.61268747 237 49
-0.54346925 -0.11419161 0.62031543 239 50
-0.54943919 -0.11734076 0.63778991 239 51
-0.5432753 -0.11644675 0.6454255 239 52
-0.53701109 -0.11551888 0.65297502 238 53
-0.54212195 -0.11848468 0.6708737 237 54
-0.54613656 -0.1211282 0.68835205 238 55
-0.53929359 -0.12005517 0.69595182 239 56
-0.54338306 -0.12280558 0.71438348 239 57
-0.54639119 -0.12523293 0.73234391 240 58
-0.53895605 -0.1240079 0.73995703 236 59
-0.54199243 -0.12652957 0.75886565 240 60
-0.54396439 -0.12872797 0.77725267 239 61
-0.53592587 -0.12734455 0.78484124 240 62
-0.53788012 -0.12962471 0.80416906 242 63
-0.53940982 -0.1318114 0.82367533 238 64
-0.53990072 -0.1336752 0.84259284 240 65
-0.54057938 -0.13567133 0.86242199 240 66
-0.53139609 -0.13398896 0.86998117 240 67
-0.53079104 -0.13559565 0.88918674 238 68
-0.53884733 -0.14062029 0.92120898 238 69
-0.53778076 -0.14221485 0.94158357 238 70
-0.52753323 -0.14025508 0.94912046 238 71
-0.53375971 -0.14487235 0.98186326 239 72
-0.53134501 -0.14614768 1.0025604 239 73
-0.52027959 -0.14396907 1.0100191 238 74
-0.52463621 -0.14815943 1.043382 237 75
-0.52035999 -0.14889747 1.0634736 240 76
-0.52375758 -0.15296052 1.098153 238 77
-0.51839495 -0.15343685 1.1184565 235 78
-0.51984733 -0.15695591 1.152693 238 79
-0.51383924 -0.15736018 1.1740305 237 80
-0.51380646 -0.16052748 1.2086219 236 81
-0.51293463 -0.16349633 1.2434164 236 82
-0.51121897 -0.16626391 1.2783971 235 83
-0.50865489 -0.1688274 1.3135462 233 84
-0.50561947 -0.17136601 1.3497527 234 85
-0.50686985 -0.17619912 1.3988718 234 86
-0.50153738 -0.17809108 1.4345094 232 87
-0.50084668 -0.18254836 1.4850056 232 88
-0.49888647 -0.18669926 1.5357431 230 89
-0.49565095 -0.19053991 1.5866956 228 90
-0.49082863 -0.19390114 1.636899 229 91
-0.48973697 -0.19971202 1.7032696 225 92
-0.48217332 -0.20239638 1.7538265 226 93
-0.48191398 -0.2097726 1.8349007 228 94
-0.47165239 -0.21187364 1.8867087 234 95
-0.45621628 -0.2112319 1.9232267 239 96
-0.43279171 -0.20577563 1.9298195 236 97
-0.40928811 -0.20026843 1.9360801 234 98
-0.38246328 -0.19244789 1.9265045 236 99
-0.35902512 -0.18689173 1.9320477 235 100
-0.33287245 -0.17926 1.9226342 235 101
-0.30950683 -0.17365772 1.9274706 236 102
-0.28608572 -0.16801062 1.9319751 236 103
-0.26261371 -0.16231984 1.9361472 238 104
-0.23909518 -0.15658642 1.9399861 236 105
-0.21553475 -0.15081149 1.943491 235 106
-0.19193685 -0.14499614 1.9466611 239 107
-0.16830604 -0.13914147 1.9494958 235 108
-0.14352119 -0.13150088 1.9361304 235 109
-0.12005209 -0.12562455 1.9382734 237 110
-0.096563831 -0.11971265 1.9400828 235 111
-0.073060915 -0.11376628 1.9415582 236 112
-0.04954784 -0.1077866 1.9426992 235 113
-0.026029121 -0.10177472 1.9435058 235 114
-0.0026592147 -0.094399005 1.9290376 234 115
0.02100724 -0.089659065 1.9441144 236 116
0.044515878 -0.083557591 1.9439166 232 117
0.068012156 -0.077428594 1.9433841 235 118
0.091491565 -0.071273223 1.9425167 234 119
0.1149496 -0.065092683 1.9413149 234 120
0.13982621 -0.059973907 1.9556764 235 121
0.16344139 -0.053689789 1.9537894 235 122
0.18702142 -0.047383841 1.9515655 238 123
0.21056183 -0.041057285 1.9490054 237 124
0.23405801 -0.034711357 1.9461097 238 125
0.2575056 -0.028347228 1.9428786 238 126
0.28344893 -0.022662129 1.9540786 236 127
0.30698335 -0.016211133 1.9501461 236 128
0.33359516 -0.010372158 1.9615538 238 129
0.35720944 -0.0038350858 1.9569091 237 130
0.38075149 0.0027142726 1.9519268 237 131
0.40798384 0.0088224001 1.9621518 237 132
0.43157548 0.015450846 1.956448 236 133
0.45900083 0.021773357 1.9648819 236 134
0.4826082 0.028472502 1.9584522 236 135
0.51071215 0.03495926 1.9670099 236 136
0.53882414 0.041577924 1.9741535 238 137
0.56252331 0.048404995 1.9665891 237 138
0.59131402 0.05519164 1.9738159 236 139
0.6149869 0.062080551 1.9655042 236 140
0.64379293 0.069039017 1.9709027 236 141
0.67320937 0.076113999 1.9767526 236 142
0.69688797 0.08311139 1.9672754 234 143
0.72662902 0.090354711 1.9722066 235 144
0.75622046 0.097690001 1.9757142 236 145
0.78644115 0.1051507 1.9796299 235 146
0.81647158 0.112693 1.98212 235 147
0.84713918 0.12036487 1.9849951 235 148
0.87757576 0.12810782 1.9864446 235 149
0.9086566 0.1359843 1.9882556 233 150
0.93239284 0.14330415 1.9754285 234 151
0.97092497 0.15199545 1.9893664 232 152
1.0025661 0.16016763 1.9895357 233 153
1.0338739 0.16838403 1.9882843 233 154
1.0736039 0.17757618 2.0001428 233 155
1.0974321 0.18513523 1.9849695 233 156
1.1383274 0.19467635 1.9963113 234 157
1.1703441 0.2032935 1.9926927 233 158
1.2114563 0.21310616 2.0016885 234 159
1.2530093 0.22310871 2.0098586 233 160
1.2862332 0.23214597 2.0050664 233 161
1.3284637 0.24246736 2.0116732 233 162
1.371092 0.25297037 2.0174229 235 163
1.404874 0.26234275 2.0105534 234 164
1.4480972 0.27314809 2.0146871 235 165
1.4916737 0.28412604 2.0179358 232 166
1.5355873 0.29527345 2.0202892 233 167
1.5798222 0.30658704 2.0217381 232 168
1.6590631 0.32808357 2.0109389 230 170
1.7252463 0.34326774 2.0320914 230 171
1.7714469 0.35537925 2.0303898 230 172
1.82775 0.36929291 2.0375328 228 173
1.8852589 0.38357031 2.0441132 228 174
1.9317116 0.39610535 2.0385079 228 175
2.0009871 0.41272613 2.0527282 228 176
2.0598795 0.4277187 2.0554178 229 177
2.1304035 0.44494718 2.0665379 227 178
2.1902287 0.46044022 2.0664065 225 179
2.2618845 0.47825202 2.0743628 227 180
2.3348963 0.49651259 2.0812531 228 181
2.3952041 0.51259238 2.0760903 225 182
2.469183 0.5314039 2.0797062 224 183
2.5556083 0.5527904 2.0903542 225 184
2.6298704 0.57206625 2.08971 222 185
2.7296972 0.59651649 2.1047611 223 186
2.8058076 0.61657673 2.1007829 221 187
2.9326324 0.64690185 2.1279392 220 188
3.0090213 0.66748142 2.1190886 220 189
3.1385465 0.69898915 2.1409748 219 190
3.2293873 0.72297001 2.135812 218 191
3.3334072 0.74988639 2.1358185 218 192
3.8940122 0.8845681 2.248939 193 195
4.0155468 0.91664606 2.2420921 212 196
4.1102099 0.94328284 2.2187738 215 197
4.2599659 0.98200136 2.2191374 214 198
4.4800339 1.0363576 2.2473538 212 199
4.6036429 1.0702391 2.2267115 212 200
4.8818307 1.1384184 2.2681768 216 201
4.922214 1.1546925 2.2047396 222 202
4.9326129 1.1643263 2.1291156 220 203
4.9281726 1.1705889 2.0483868 221 204
4.9510589 1.1829422 1.9783397 219 205
4.9591203 1.1919272 1.9031945 220 206
4.9651809 1.2004163 1.8278106 221 207
4.9701653 1.2086171 1.7525344 220 208
4.9750133 1.2167459 1.6776593 220 209
4.9778624 1.2243712 1.6026334 221 210
4.9805923 1.2319282 1.5280144 220 211
4.9964542 1.2425427 1.4571055 220 212
4.9961824 1.2493341 1.3823668 220 213
5.010078 1.2594632 1.3112037 221 214
5.0230088 1.2693624 1.2398272 219 215
5.0206409 1.2755742 1.1654937 220 216
5.0316076 1.2849817 1.0939344 220 217
5.0262527 1.2904117 1.0196971 220 218
5.035255 1.2993212 0.94802558 221 219
5.0432882 1.3079933 0.87620997 219 220
5.0503521 1.3164264 0.80426425 219 221
5.0564446 1.3246189 0.73220193 220 222
5.0615649 1.3325694 0.66003698 218 223
5.0811853 1.3441706 0.58897507 221 224
5.0688844 1.3477374 0.51545417 219 225
5.0865731 1.3588916 0.44381577 219 226
5.1023245 1.3695924 0.371656 218 227
5.1018414 1.3828547 0.22584021 219 229
5.1156149 1.3931258 0.15278642 211 230
3.8592925 1.0772167 0.052708492 222 232
3.8103693 1.0694177 -0.00023514032 223 233
3.7617683 1.0615855 -0.051910281 221 234
3.6817176 1.0452683 -0.09980841 224 235
3.6762083 1.0486879 -0.15258296 220 236
3.864002 1.1040592 -0.22638969 223 237
3.8423343 1.1033756 -0.28001547 227 238
3.7740643 1.0900058 -0.32681197 224 239
3.7511446 1.088845 -0.3787694 225 240
3.7266183 1.0872062 -0.43004864 227 241
3.7024024 1.0856127 -0.48094535 224 242
3.7059586 1.0916693 -0.53689247 211 243
3.6945572 1.0936048 -0.59010881 217 244
3.6683307 1.0913963 -0.63997579 220 245
3.6696224 1.0968814 -0.69607979 220 246
3.6850548 1.1063997 -0.75625753 215 247
3.7581863 1.132374 -0.83305013 219 248
3.7279491 1.1291178 -0.88280749 213 249
3.7266488 1.1341141 -0.94089389 212 250
2.6899641 0.86943972 -0.97996664 217 258
2.6185071 0.85225797 -0.99422455 220 259
2.5332654 0.83074296 -1.0001391 219 260
2.4354215 0.80518526 -0.99753761 220 261
2.3640628 0.78744268 -1.0054106 221 262
2.293874 0.7698791 -1.0119369 220 263
2.2104356 0.74805164 -1.0093626 222 264
2.1372781 0.73293912 -1.0509543 222 266
2.0673785 0.71483296 -1.0507543 222 267
2.0119262 0.70109642 -1.0574285 222 268
1.9559218 0.68704706 -1.062252 223 269
1.8881067 0.66908717 -1.0577698 223 270
1.8448447 0.65881932 -1.0678669 223 271
1.7906148 0.64491147 -1.0692298 226 272
1.7485163 0.63480204 -1.077773 225 273
1.6941388 0.62058139 -1.0761456 225 274
1.6524836 0.61039668 -1.0826197 225 275
1.5988464 0.59614623 -1.0785797 223 276
1.5577122 0.58590907 -1.0830144 225 277
1.5167989 0.57564455 -1.0865281 225 278
1.4761238 0.56535774 -1.0891274 224 279
1.4349771 0.55480671 -1.0901779 225 280
1.3948365 0.54449135 -1.0909595 224 281
1.3663117 0.53807324 -1.101451 226 282
1.3266146 0.5277245 -1.1006194 225 283
1.2872345 0.5173772 -1.0989093 226 284
1.2583878 0.51062995 -1.1067231 225 285
1.2195454 0.50027627 -1.1034287 225 286
1.1909752 0.49348351 -1.1099672 226 287
1.1527245 0.48314005 -1.1051164 226 288
1.1251175 0.47654849 -1.1111313 225 289
1.0969621 0.46969819 -1.1158744 226 290
1.068918 0.46282655 -1.1200714 227 291
1.0318424 0.45252293 -1.1123422 226 292
1.0048056 0.445871 -1.1160933 227 293
0.97729892 0.438979 -1.1185529 228 294
0.95051998 0.43229884 -1.1212696 227 295
0.93239176 0.42890337 -1.1353809 216 296
0.19371712 0.14378779 -0.11184378 221 297
0.18894021 0.14276303 -0.11414598 225 298
0.18361089 0.14151333 -0.11555497 223 299
0.17776389 0.14004551 -0.11604725 225 300
0.16989867 0.13773972 -0.11310078 223 301
0.16566035 0.13689758 -0.11587386 222 302
0.16138647 0.13604075 -0.11858724 220 303
0.15707785 0.13516939 -0.12124039 213 304
0.17843269 0.14766254 -0.19712846 224 307
0.18166201 0.15038528 -0.21768306 230 308
0.18019187 0.15109257 -0.22953071 236 309
0.17438243 0.14985968 -0.23247613 234 310
0.16853575 0.14860962 -0.23533948 232 311
0.16265294 0.14734264 -0.23812024 233 312
0.055200122 0.097452238 0.0024338365 224 314
0.051531523 0.096351095 0.0040875375 224 315
0.04228713 0.092352822 0.02158168 225 316
0.13003036 0.14121754 -0.26335329 218 318
0.12290579 0.13932 -0.26276582 238 319
0.11891875 0.1391796 -0.27247441 238 320
0.11309247 0.13803768 -0.27645814 237 321
0.10769917 0.13717631 -0.28227717 235 322
0.10314615 0.13687885 -0.29187012 235 323
0.10019427 0.13769931 -0.30912679 231 324
0.093346663 0.13609482 -0.31095082 228 325
0.086477339 0.1344758 -0.31267768 222 326
0.079587609 0.13284254 -0.31430715 222 327
0.072678789 0.13119538 -0.31583881 223 328
0.063300617 0.12755384 -0.30260736 228 329
0.056555972 0.12592764 -0.30390459 226 330
0.049796663 0.12428884 -0.30510604 221 331
0.03918983 0.11884297 -0.27568454 214 332
0.032927841 0.11740018 -0.27761918 215 333
0.025270328 0.11431774 -0.26562774 215 334
0.019792445 0.11378697 -0.27528626 217 335
-0.020943014 0.06345208 0.15815639 212 343
-0.021452034 0.063319974 0.15816067 214 344
-0.021960784 0.063187264 0.15817221 215 345
-0.022405611 0.062979065 0.15918615 215 346
-0.2078639 0.059653055 -0.32731223 228 367
-0.21482909 0.057615798 -0.32475376 229 368
-0.22175694 0.055579044 -0.32209569 229 369
-0.22864617 0.053543177 -0.31933832 227 370
-0.22348341 0.051993571 -0.28790814 228 371
-0.24230346 0.049475655 -0.31352794 228 372
-0.25565928 0.047077518 -0.32505113 230 373
-0.26257432 0.044990726 -0.32181174 230 374
-0.26246694 0.043390758 -0.30408204 223 375
-0.26237816 0.041876629 -0.28733951 222 376
-0.27567923 0.039349619 -0.29730481 216 377
-0.12614331 0.050951257 -0.002195701 232 378
-0.12683421 0.05031671 0.0027685463 230 379
-0.13334858 0.04913263 -0.0026953518 220 380
-0.31770509 0.02965571 -0.31016916 225 381
-0.32439423 0.027545948 -0.30604291 230 382
-0.33895797 0.024555597 -0.31452024 225 383
-0.36243808 0.020461876 -0.33611071 228 384
-0.36945778 0.018208612 -0.33135337 226 385
-0.37641066 0.015963387 -0.32649493 226 386
-0.38329524 0.013726637 -0.32153642 214 387
-0.41356087 0.0019203834 -0.27824593 235 393
-0.40944862 0.001367338 -0.26063126 236 394
-0.41543317 -0.00068104267 -0.25518781 235 395
-0.41135973 -0.001152467 -0.23857169 235 396
-0.40624416 -0.0014034025 -0.22141986 238 397
-0.41170239 -0.0033121817 -0.2160133 235 398
-0.41708559 -0.0052088015 -0.21052782 236 399
-0.40058762 -0.0034455024 -0.18323351 235 400
-0.40553427 -0.0052152835 -0.17789908 234 401
-0.42123014 -0.0088351853 -0.18271019 234 402
-0.42616123 -0.010627951 -0.17708169 236 403
-0.41992748 -0.010448117 -0.16147016 236 404
-0.43578911 -0.014172401 -0.16561143 237 405
-0.45258278 -0.01811425 -0.17001007 234 406
-0.4810285 -0.024242166 -0.18343951 236 407
-0.49830663 -0.028399553 -0.18685605 237 408
-0.50326174 -0.030299183 -0.180131 237 409
-0.50812417 -0.032181475 -0.1733339 238 410
-0.5001542 -0.0316098 -0.15709679 237 411
-0.50470799 -0.033408623 -0.15033884 234 412
-0.50916898 -0.035189513 -0.14351453 235 413
-0.50126058 -0.034535225 -0.12835078 236 414
-0.505427 -0.036235858 -0.12157069 235 415
-0.50950056 -0.037918013 -0.11472981 234 416
-0.50005376 -0.036866043 -0.099561766 235 417
-0.50383329 -0.038465541 -0.092792496 233 418
-0.50752026 -0.040046144 -0.085967913 232 419
-0.49737781 -0.038759585 -0.071394339 235 420
-0.50077933 -0.040258359 -0.064656928 235 421
-0.50408888 -0.041737888 -0.057869658 236 422
-0.49416035 -0.04040819 -0.044368923 235 423
-0.49719959 -0.041809533 -0.037671372 232 424
-0.45843869 -0.03420848 -0.011213705 229 425
-0.46104646 -0.035452154 -0.0050174594 234 426
-0.47793466 -0.039815474 -0.0050916821 233 427
-0.49399304 -0.044039834 -0.0043406934 236 428
-0.49649364 -0.045302402 0.0023633391 235 429
-0.49890298 -0.046544749 0.0091044456 235 430
-0.50122058 -0.047766659 0.01588136 235 431
-0.47306144 -0.042105462 0.033586815 233 432
-0.47321063 -0.042791184 0.040635362 232 433
-0.4862588 -0.046421979 0.043405592 238 434
-0.49557924 -0.049226563 0.047683403 236 435
-0.49737906 -0.050310913 0.054421529 236 436
-0.49908745 -0.051374104 0.061186776 238 437
-0.50070405 -0.052415904 0.067977846 234 438
-0.46535641 -0.044745784 0.084062725 234 439
-0.4600414 -0.044094387 0.091948405 233 440
-0.46696544 -0.046343047 0.096925437 230 441
-0.47860092 -0.049736876 0.10109651 228 442
-0.46726632 -0.04762071 0.10999396 225 443
-0.45866263 -0.046133492 0.11804496 219 444
-0.45953077 -0.046929937 0.124273 222 445
-0.46031475 -0.047705848 0.13051479 223 446
-0.46005154 -0.04822382 0.13689846 223 447
-0.45970124 -0.048717786 0.14326611 224 448
-0.45829892 -0.048947286 0.14971843 226 449
-0.45390964 -0.048423927 0.15638949 226 450
-0.46006602 -0.050542336 0.16211137 227 451
-0.45066392 -0.048739653 0.16897658 224 452
-0.45278609 -0.049842548 0.17500804 229 453
0.095561177 -0.27199313 1.9319015 1831 0
0.081771858 -0.24437931 1.9300447 1791 1
0.068084076 -0.21711585 1.9296237 1896 2
0.054453302 -0.19083524 1.9376169 1867 3
0.040784352 -0.16391128 1.940119 1846 4
0.027183525 -0.13665608 1.9381051 1858 5
0.013487272 -0.10987798 1.942544 1901 6
-0.00027525052 -0.083017237 1.9474584 1850 7
-0.013925679 -0.055912085 1.9478511 1903 8
-0.02755516 -0.028793924 1.9477146 1884 9
-0.041545935 -0.0016249046 1.9540383 1806 10
-0.055427738 0.025692411 1.9568299 1899 11
-0.069621496 0.053273685 1.9630702 1782 12
-0.084058873 0.081190772 1.9707495 1737 13
-0.098091237 0.10897709 1.9719001 1723 14
-0.11232687 0.13701946 1.9744847 1681 15
-0.1262989 0.1649026 1.9735378 1743 16
-0.14037114 0.19293994 1.9730271 1754 17
-0.1552639 0.22195441 1.9788496 1764 18
-0.1703845 0.25138295 1.98505 1777 19
-0.18469334 0.27996865 1.983786 1523 20
-0.20026112 0.31021118 1.9907149 1563 21
-0.21537247 0.34001434 1.9931127 1661 22
-0.23024136 0.3695997 1.9929527 1620 23
-0.24546555 0.39975631 1.9941014 1637 24
-0.2609145 0.43032697 1.9955688 1634 25
-0.27695724 0.46185118 1.9992357 1561 26
-0.29236707 0.49257937 1.9984257 1604 27
-0.30934182 0.52571034 2.0044801 1507 28
-0.32507676 0.5571298 2.0032372 1503 29
-0.32937074 0.57123715 1.9493577 661 30
-0.32825252 0.57667053 1.8752651 668 31
-0.3271808 0.58168304 1.8061404 759 32
-0.32717091 0.58792347 1.7455646 828 33
-0.32655463 0.59283346 1.6861948 984 34
-0.32703453 0.59915102 1.6342992 977 35
-0.32656482 0.60364479 1.5817766 782 36
-0.32563719 0.6071052 1.5304428 1002 37
-0.32609105 0.61256111 1.486383 1049 38
-0.3103084 0.59093833 1.3919111 41 39
-0.30739051 0.59777367 1.2696227 101 42
-0.30613905 0.59920728 1.2316685 329 43
-0.30440387 0.59964746 1.1940197 310 44
-0.30400321 0.60221094 1.1615046 299 45
-0.30412436 0.60554332 1.131591 234 46
-0.30419645 0.6086781 1.1026454 341 47
-0.30551729 0.61388004 1.0777262 334 48
-0.30687496 0.61906749 1.0536563 433 49
-0.30498752 0.61848581 1.0229648 368 50
-0.3054162 0.62187171 0.99845064 392 51
-0.30658856 0.62649852 0.97623974 390 52
-0.30613363 0.62817407 0.95127183 504 53
-0.31789652 0.65397829 0.92793125 2079 55
-0.31751028 0.65563804 0.90443951 2089 56
-0.31796399 0.65874565 0.88309926 2111 57
-0.31745371 0.66005826 0.86057818 2486 58
-0.31707782 0.66155487 0.83886367 2126 59
-0.31798822 0.66533738 0.81978208 2331 60
-0.31870791 0.66873419 0.80076152 2042 61
-0.31691781 0.66749895 0.77826768 2050 62
-0.31801948 0.67151213 0.76063401 2222 63
-0.3185578 0.67445982 0.74247015 2161 64
-0.3197183 0.67852449 0.72547007 2264 65
-0.31629744 0.6740824 0.70262599 2279 66
-0.31669807 0.67666823 0.68531442 2048 67
-0.31652826 0.67816496 0.6675638 2212 68
-0.31619212 0.67932039 0.64991504 2309 69
-0.31527641 0.67936081 0.63190317 2252 70
-0.31670302 0.68376046 0.61678308 2498 71
-0.3158924 0.68394244 0.59942383 2692 72
-0.31704387 0.68779248 0.58432621 2664 73
-0.31550604 0.68655092 0.56674862 2520 74
-0.31638423 0.68985105 0.55171382 2325 75
-0.31584018 0.69044101 0.53553694 2547 76
-0.31645691 0.69321722 0.52054054 2378 77
-0.31476831 0.69158727 0.50381911 2534 78
-0.31512365 0.69383401 0.48891622 2499 79
-0.3144756 0.69414854 0.4734019 2381 80
-0.31369731 0.69419545 0.45797321 2706 81
-0.31500512 0.69823676 0.44403267 2510 82
-0.31575581 0.7012049 0.42975843 2856 83
-0.31505406 0.7013641 0.41471386 2503 84
-0.31557021 0.70386678 0.40042877 2599 85
-0.31552351 0.70527452 0.38590807 2587 86
-0.22159237 0.52529407 0.31997159 883 88
-0.22512051 0.53328633 0.31052715 899 89
-0.19868854 0.48472729 0.27177784 3703 92
-0.20233431 0.49290946 0.26275906 282 93
-0.19958648 0.48851433 0.2524122 408 94
-0.19811547 0.48662055 0.24243073 3034 95
-0.1983712 0.48813471 0.23270038 2930 96
-0.17109609 0.43504083 0.22160766 234 97
-0.24044511 0.57378757 0.2135105 379 98
-0.13989395 0.37470722 0.20500299 1290 99
-0.13368446 0.36309934 0.19783671 242 100
-0.27302673 0.64789301 0.12339938 109 105
-0.2664499 0.63732541 0.099098988 307 107
-0.26500013 0.63574755 0.086468913 312 108
-0.26692188 0.64102471 0.072384998 358 109
-0.26525983 0.63903069 0.059697703 510 110
-0.26350024 0.63683796 0.047056362 698 111
-0.26590887 0.64317453 0.032089293 262 112
-0.26562509 0.64402854 0.018364683 296 113
-0.26522216 0.64465362 0.0045638531 394 114
-0.26469916 0.64504713 -0.0093084425 393 115
-0.27568111 0.66920835 -0.031777948 17 116
-0.26864633 0.65621555 -0.041423544 102 117
-0.26648915 0.65329581 -0.054681316 318 118
-0.26584902 0.65353435 -0.069307223 200 119
-0.26387101 0.65100557 -0.082899973 265 120
-0.26496759 0.65490794 -0.099559441 289 121
-0.26628733 0.6593191 -0.11684836 314 122
-0.26312843 0.65437436 -0.1297868 287 123
-0.26219234 0.65410841 -0.14522617 231 124
-0.258816 0.64871913 -0.15804709 254 125
-0.2617746 0.65673339 -0.17866473 183 126
-0.26224735 0.6595481 -0.19680469 228 127
-0.26178765 0.66042811 -0.21416511 236 128
-0.26078534 0.66019094 -0.23115768 262 129
-0.25997296 0.66039675 -0.2487811 222 130
0.048537102 0.012961915 0.079450443 63 177
0.049900282 0.0094833393 0.086879052 154 178
0.050826892 0.007882854 0.08453542 1039 179
0.051903121 0.0054711718 0.087162077 39 180
0.28178474 -0.40979069 -0.31816703 88 229
0.28656188 -0.41989017 -0.31236613 59 230
0.2906298 -0.42875451 -0.30486929 467 231
0.29259259 -0.43389857 -0.29286277 1578 232
0.29719728 -0.44371346 -0.28649807 176 233
0.30842283 -0.4653495 -0.29315001 913 234
0.31054208 -0.47078791 -0.28130609 557 235
0.31723046 -0.48441547 -0.27814382 649 236
0.32684511 -0.50335717 -0.27986866 154 237
0.34318864 -0.53454137 -0.29261404 199 238
0.35527048 -0.55814624 -0.29669172 443 239
0.35610834 -0.56138831 -0.28144407 1505 240
0.36023897 -0.57061172 -0.27167898 1128 241
0.37589821 -0.60095137 -0.2794283 132 242
0.37764922 -0.60588557 -0.26537764 1747 243
0.37729698 -0.60693079 -0.24848546 965 244
0.39550519 -0.64221388 -0.25744939 54 245
1.3803393 -2.4805608 -1.419849 86 248
1.446152 -2.6097507 -1.4361767 81 249
1.4949522 -2.7076342 -1.4280728 61 250
1.5652171 -2.8461366 -1.4399639 73 251
1.6316518 -2.9779885 -1.4425026 65 252
1.7110766 -3.1348345 -1.4531577 42 253
1.8045264 -3.3187981 -1.47129 41 254
1.8877133 -3.4840643 -1.4728557 31 255
1.9845444 -3.6758687 -1.4801836 28 256
2.1099052 -3.9227006 -1.5040342 30 257
2.3281918 -4.3477039 -1.5919884 15 258
2.4106953 -4.5150051 -1.5607152 9 259
2.514092 -5.0452557 1.5805353 48 292
2.3531015 -4.7261267 1.5904299 73 293
2.1688414 -4.3578548 1.5725716 88 294
2.052707 -4.128356 1.5866033 95 295
1.9548382 -3.9356215 1.604899 129 296
1.8728755 -3.7750127 1.6279812 139 297
1.7930454 -3.618181 1.6465676 151 298
1.7169952 -3.4685707 1.6622988 192 299
1.6487231 -3.3345592 1.6792973 178 300
1.5809243 -3.2009943 1.6915089 218 301
1.5116799 -3.0638545 1.696949 238 302
1.454772 -2.9520397 1.7100503 284 303
1.4056423 -2.8561409 1.7274919 318 304
1.3572141 -2.7613442 1.7420948 340 305
1.2811414 -2.6076801 1.7190329 354 306
1.2341374 -2.5149808 1.7265269 367 307
1.1868106 -2.4212112 1.7298775 382 308
1.1505339 -2.3506181 1.7448561 424 309
1.108005 -2.2663767 1.7480758 504 310
1.0762109 -2.2048118 1.7641602 524 311
1.0372305 -2.1275508 1.7666482 561 312
1.002455 -2.0590382 1.7728686 623 313
0.97072142 -1.9968305 1.7815642 616 314
0.93824089 -1.9327505 1.7865167 697 315
0.90640104 -1.8697991 1.7900645 705 316
0.8794235 -1.8172187 1.8003978 716 317
0.84370428 -1.7452428 1.791271 798 318
0.81758648 -1.6940774 1.7987528 744 319
0.79167837 -1.6431723 1.8047209 868 320
0.76629692 -1.5932298 1.8098673 899 321
0.74203104 -1.5455689 1.8156264 950 322
0.71971107 -1.5020723 1.8242352 934 323
0.69526845 -1.4536381 1.8259096 965 324
0.67385966 -1.411845 1.8334689 1015 325
0.65096945 -1.3665295 1.8354516 1078 326
0.62937284 -1.3239663 1.8391705 1096 327
0.60900521 -1.2840418 1.8447767 1071 328
0.58753085 -1.241407 1.8454537 1251 329
0.565795 -1.1979704 1.8434023 1150 330
0.54695404 -1.1610718 1.84891 1232 331
0.52685064 -1.1210659 1.8486419 1244 332
0.5078696 -1.0835199 1.8505818 1327 333
0.49081263 -1.0503836 1.8581653 1374 334
0.47361785 -1.0168046 1.8641175 1307 335
0.45529032 -0.9803654 1.8641908 1444 336
0.4389278 -0.94853389 1.8710378 1453 337
0.42129898 -0.91348332 1.871103 1516 338
0.40512717 -0.8818723 1.8764129 1494 339
0.38903573 -0.85034573 1.8809937 1490 340
0.37168053 -0.81549692 1.8777463 1622 341
0.35550436 -0.78346133 1.8790319 1571 342
0.34053588 -0.75440454 1.8859026 1628 343
0.32515877 -0.72418773 1.8894119 1679 344
0.30972388 -0.69369209 1.8913343 1638 345
0.29491794 -0.66475934 1.8962781 1687 346
0.27978688 -0.63482755 1.8978097 1735 347
0.26510355 -0.60600913 1.9015002 1739 348
0.25091359 -0.57849848 1.9083515 1749 349
0.23561093 -0.54763854 1.9042039 1695 350
0.22132576 -0.51961899 1.9079632 1793 351
0.20699641 -0.49135271 1.9101843 1779 352
0.19311956 -0.46442375 1.9166383 1827 353
0.17824653 -0.43405727 1.9089992 1800 354
0.16439828 -0.40696743 1.9133465 1803 355
0.15056342 -0.37984812 1.917151 1858 356
0.13684019 -0.35309729 1.9223732 1814 357
0.12283389 -0.32501784 1.9201859 1922 358
0.1092762 -0.29889244 1.928274 1839 359
-0.54673952 -0.052221444 0.17642526 238 0
-0.54681593 -0.052891616 0.18389858 235 1
-0.51649839 -0.046958249 0.19162656 236 2
-0.5163787 -0.047548484 0.19867462 238 3
-0.53081065 -0.051336478 0.20601456 235 4
-0.53049016 -0.051900845 0.21326736 238 5
-0.54567277 -0.055910479 0.22127071 236 6
-0.54513943 -0.056447033 0.22873618 237 7
-0.54450464 -0.056960944 0.2361953 237 8
-0.54376864 -0.057452079 0.24364665 238 9
-0.54293156 -0.057920385 0.2510888 238 10
-0.54199344 -0.058365736 0.25852028 236 11
-0.54095453 -0.058788072 0.26593971 236 12
-0.53981513 -0.059187297 0.27334565 236 13
-0.53857535 -0.05956335 0.28073665 236 14
-0.53723544 -0.059916135 0.28811133 237 15
-0.53579569 -0.0602456 0.29546821 236 16
-0.53425634 -0.060551684 0.30280593 237 17
-0.54783314 -0.064446986 0.31350479 237 18
-0.54604417 -0.064713791 0.32101569 236 19
-0.54415357 -0.064956337 0.32850248 236 20
-0.54216188 -0.065174609 0.33596373 236 21
-0.54006928 -0.065368533 0.34339803 237 22
-0.53787625 -0.065538079 0.35080394 237 23
-0.52071965 -0.062035058 0.35351497 238 24
-0.53319079 -0.065803945 0.36552483 237 25
-0.54184234 -0.069399953 0.38507932 238 27
-0.53908163 -0.069448516 0.39251703 239 28
-0.53622079 -0.06947194 0.39991686 238 29
-0.53326017 -0.069470197 0.40727744 238 30
-0.53020048 -0.0694433 0.4145973 238 31
-0.52704227 -0.069391236 0.42187509 236 32
-0.53793007 -0.072968096 0.4356361 236 33
-0.53448284 -0.072862878 0.44302666 236 34
-0.53093636 -0.072731867 0.4503696 239 35
-0.54027969 -0.075990722 0.46434426 239 36
-0.53644109 -0.075803503 0.47177261 237 37
-0.53250283 -0.075589925 0.47914791 238 38
-0.54200655 -0.078976363 0.49418187 236 39
-0.52433014 -0.075083748 0.49373353 238 40
-0.53341621 -0.078402847 0.50903821 237 41
-0.54135066 -0.081453621 0.52414566 238 42
-0.5366981 -0.081091121 0.53159881 237 43
-0.53194577 -0.080701217 0.53898734 241 44
-0.53993869 -0.083857566 0.55515611 239 45
-0.53486472 -0.083401904 0.56259429 236 46
-0.52969128 -0.082918361 0.56996191 238 47
-0.53610283 -0.085723862 0.58606094 238 48
-0.53060967 -0.085172519 0.59344983 239 49
-0.53721344 -0.088103637 0.61050618 237 50
-0.53138733 -0.087481409 0.6179148 236 51
-0.53738195 -0.090311334 0.63533229 238 52
-0.53121799 -0.089616001 0.64274728 238 53
-0.53586233 -0.092124313 0.65985304 238 54
-0.54085338 -0.094785705 0.6778453 238 55
-0.53410983 -0.093968943 0.68531621 239 56
-0.52726698 -0.093122274 0.69269294 237 57
-0.53067338 -0.095410019 0.71036273 238 58
-0.53437334 -0.097840592 0.72893405 239 59
-0.53699219 -0.099991664 0.74700415 241 60
-0.52930903 -0.098966256 0.75443161 240 61
-0.53193343 -0.10120159 0.77345133 238 62
-0.53413522 -0.10336132 0.79266018 239 63
-0.52583188 -0.10219783 0.80005461 240 64
-0.52672291 -0.10402375 0.81871396 242 65
-0.52781051 -0.10597271 0.83828992 239 66
-0.52786255 -0.10764185 0.85724777 241 67
-0.52808243 -0.10942782 0.87712318 241 68
-0.52728117 -0.11093415 0.89634657 238 69
-0.5266192 -0.11255111 0.91648757 238 70
-0.52550572 -0.11408047 0.9367525 240 71
-0.52339417 -0.11533083 0.9563148 241 72
-0.52137947 -0.11668238 0.97679317 240 73
-0.51838362 -0.1177557 0.99653572 240 74
-0.51545638 -0.11892389 1.0171922 239 75
-0.51156574 -0.11981487 1.0370798 239 76
-0.51548702 -0.12368511 1.0715626 239 77
-0.51050389 -0.1243573 1.0916722 239 78
-0.51246214 -0.1277618 1.1257229 240 79
-0.51358473 -0.13100512 1.1600136 236 80
-0.51430404 -0.13425721 1.1954098 236 81
-0.5069145 -0.13443966 1.2159179 239 82
-0.50568128 -0.13721536 1.250734 236 83
-0.50359285 -0.13981985 1.285724 236 84
-0.50686556 -0.14487518 1.3353761 235 85
-0.50285411 -0.14709421 1.370752 235 86
-0.49797398 -0.1491342 1.4062463 233 87
-0.50345892 -0.15602542 1.4713777 233 88
-0.50150263 -0.1599506 1.5211414 228 89
-0.49372315 -0.1614822 1.5580497 228 90
-0.49442226 -0.16732657 1.6231407 228 91
-0.48893672 -0.17061318 1.6743999 228 92
-0.48186094 -0.17348233 1.7248497 225 93
-0.4822768 -0.18065475 1.8058336 226 94
-0.48057389 -0.18739443 1.8871506 232 95
-0.46508723 -0.18721355 1.9236895 239 96
-0.44142014 -0.18263133 1.9302896 237 97
-0.4176715 -0.17800218 1.9365561 236 98
-0.39071864 -0.17137375 1.9279478 234 99
-0.36701989 -0.1666927 1.9334967 234 100
-0.34034312 -0.1599686 1.9231057 237 101
-0.316728 -0.15524343 1.9279416 235 102
-0.29305547 -0.15047659 1.932444 237 103
-0.26933002 -0.145669 1.9366122 235 104
-0.24555627 -0.14082162 1.9404458 235 105
-0.22173877 -0.13593532 1.9439435 236 106
-0.1978821 -0.13101108 1.9471049 235 107
-0.17399086 -0.12604985 1.9499295 236 108
-0.14887774 -0.11940494 1.9365463 236 109
-0.12514748 -0.11441804 1.9386761 237 110
-0.10139662 -0.10939732 1.9404705 236 111
-0.077629752 -0.10434377 1.9419292 232 112
-0.053851441 -0.099258348 1.9430521 234 113
-0.030066265 -0.094142035 1.9438388 235 114
-0.0062787868 -0.088995814 1.9442892 234 115
0.017506398 -0.083820686 1.9444034 235 116
0.04128474 -0.078617617 1.9441811 235 117
0.065051645 -0.073387638 1.9436224 232 118
0.088802531 -0.068131745 1.9427274 237 119
0.11253285 -0.062850952 1.9414964 237 120
0.13623805 -0.057546254 1.9399296 237 121
0.16153683 -0.053253811 1.9539109 237 122
0.1853936 -0.047855642 1.9516531 237 123
0.2092112 -0.042436462 1.9490573 238 124
0.23298506 -0.036997344 1.9461244 239 125
0.25919378 -0.032378215 1.9586383 236 126
0.28308034 -0.026852842 1.9549998 238 127
0.30963743 -0.022004101 1.9657565 238 128
0.33360296 -0.016399201 1.9614058 235 129
0.35750085 -0.010779362 1.9567155 235 130
0.38132644 -0.0051456504 1.9516861 238 131
0.40883297 -3.9149076e-05 1.9618621 236 132
0.43643039 0.0052101277 1.970632 238 133
0.46041745 0.01097646 1.9644885 235 134
0.48869836 0.016363468 1.9733872 235 135
0.51270443 0.022198562 1.9665052 236 136
0.54110873 0.027771194 1.9735886 236 137
0.57010537 0.033430297 1.98116 236 138
0.59418845 0.039382745 1.9731277 236 139
0.62356895 0.045203406 1.9798086 237 140
0.64761478 0.051213864 1.9710199 236 141
0.67698866 0.057193879 1.9758621 237 142
0.70698261 0.063270852 1.9811412 233 143
0.73101699 0.069381982 1.9711727 232 144
0.7609247 0.075601876 1.9746025 235 145
0.79146683 0.081924647 1.9784374 235 146
0.82182056 0.088331133 1.980845 234 147
0.85281652 0.094844267 1.9836342 234 148
0.88403267 0.10145216 1.9858891 232 149
0.91499823 0.10813023 1.9867163 231 150
0.94661659 0.1149203 1.98789 233 151
0.977943 0.12177138 1.9876382 233 152
1.0099277 0.12873781 1.9877092 232 153
1.0415792 0.13575596 1.9863576 234 154
1.0822227 0.14351474 1.9989527 234 155
1.1143458 0.15074369 1.9963659 232 156
1.1471354 0.15809408 1.9940519 234 157
1.1883785 0.16624866 2.0036156 233 158
1.2210317 0.17375413 1.9991884 234 159
1.2543552 0.18138517 1.9949961 233 160
1.3059952 0.19087347 2.0152266 231 161
1.339255 0.19868805 2.0087769 232 162
1.3823175 0.20758544 2.0143819 234 163
1.4164765 0.21564406 2.0073824 232 164
1.4601426 0.224815 2.0113642 233 165
1.5144097 0.23530459 2.0266933 232 166
1.5485334 0.24362172 2.0166502 233 167
1.6037922 0.25451079 2.0298839 232 168
1.6489526 0.26433644 2.0301034 229 169
1.7052857 0.2756601 2.0410454 232 170
1.7408187 0.28450623 2.028466 230 171
1.7973005 0.29611656 2.0364997 230 172
1.843673 0.30654946 2.0327966 230 173
1.9017535 0.31865445 2.03916 229 174
1.9712358 0.33246693 2.0544207 228 175
2.0304165 0.34505233 2.0580328 228 176
2.0781224 0.35617352 2.0497825 227 177
2.1500854 0.37085566 2.0612826 228 178
2.221956 0.38572046 2.0704634 227 179
2.2944477 0.40086725 2.0779676 226 180
2.355845 0.41455206 2.0745323 224 181
2.4419513 0.43210301 2.0884845 224 182
2.5033996 0.44612345 2.0813382 225 183
2.5907764 0.46428499 2.0914743 224 184
2.6658902 0.4807584 2.0903456 223 185
2.7675996 0.50161505 2.1053905 223 186
2.8825464 0.52485716 2.126158 220 187
2.9469075 0.54023874 2.1107092 219 188
3.0499802 0.5620715 2.1179903 219 189
3.1537528 0.58428031 2.1227183 219 190
3.2718239 0.6091283 2.13291 218 191
4.0667205 0.77344376 2.2354879 193 196
4.2033467 0.80360001 2.2312329 211 197
4.3136954 0.82942516 2.2109995 213 198
4.5359011 0.87549573 2.2380962 213 199
4.6888776 0.90965903 2.2287798 212 200
4.984446 0.97008985 2.27455 211 201
5.1959014 1.0158863 2.2779841 210 202
5.4800429 1.0756114 2.3033369 215 203
5.5067725 1.0882092 2.2259107 219 204
5.5185056 1.0980003 2.1431928 218 205
5.5281138 1.1073543 2.060178 221 206
5.5374641 1.1166202 1.977525 221 207
5.5446887 1.1254435 1.8946372 219 208
5.5507255 1.1339993 1.811846 218 209
5.5565281 1.1424712 1.72943 218 210
5.5754228 1.1534636 1.6508293 218 211
5.5779781 1.1612457 1.5682055 218 212
5.5946722 1.171787 1.4892757 220 213
5.5958929 1.1792487 1.4069917 218 214
5.6103878 1.189335 1.3277824 218 215
5.6083708 1.1960928 1.245477 217 216
5.6361251 1.2088547 1.1687257 219 217
5.6473632 1.2182842 1.0889091 218 218
5.6419911 1.2243023 1.0066969 217 219
5.6665673 1.2364739 0.92877555 218 220
5.6745305 1.2452304 0.84848964 219 221
5.665812 1.2504985 0.76651311 217 222
5.6871691 1.2620589 0.68755639 217 223
5.7064815 1.2732263 0.60799426 218 224
5.7100663 1.2810823 0.52709204 218 225
3.9784918 0.91730779 0.37037313 211 226
3.979454 0.92245829 0.31387317 219 227
3.9796472 0.92744309 0.25735047 219 228
3.9947042 0.93566746 0.20083565 218 229
4.0236335 0.9469713 0.1436888 214 230
4.2186942 0.99496031 0.081179947 215 231
4.1697874 0.98937529 0.023126185 220 232
4.1357441 0.98698962 -0.034460768 221 233
4.1165395 0.98785508 -0.092232957 219 234
3.1192501 0.7840665 -0.24796297 218 239
3.1718187 0.80022746 -0.30172271 220 240
3.1639221 0.80245852 -0.34692144 221 241
3.1554134 0.80454689 -0.39201593 221 242
3.1462939 0.80649239 -0.43699712 219 243
3.1670461 0.81551164 -0.48840392 220 244
3.1566112 0.81718606 -0.53356534 220 245
3.1597569 0.8221125 -0.58205992 220 246
3.1631317 0.82713252 -0.63105309 219 247
3.1648417 0.83179051 -0.68005747 220 248
3.1667612 0.83653826 -0.72956538 221 249
3.167011 0.84091878 -0.77903587 218 250
3.152622 0.84173524 -0.82424366 219 251
3.1671422 0.8497079 -0.87921739 219 252
3.1513898 0.85022873 -0.92444324 219 253
3.1350281 0.85059786 -0.96945345 218 254
3.0190599 0.82589334 -0.97604311 216 255
2.917145 0.80446267 -0.98503721 218 256
2.8165369 0.78311831 -0.99176121 219 257
2.7020984 0.75798666 -0.98965359 219 258
2.615833 0.73982298 -0.99699426 221 259
2.5299492 0.72154975 -1.0021324 219 260
2.4444892 0.70317745 -1.0050796 221 261
2.3864362 0.69177979 -1.0194625 221 262
2.3155622 0.67687249 -1.0256723 223 263
2.2313282 0.65824962 -1.0226985 222 264
2.17487 0.64682645 -1.0328145 221 265
2.1042762 0.63147783 -1.0332793 221 266
2.0483494 0.61991668 -1.0404918 221 267
1.9918422 0.60806721 -1.0458548 222 268
1.948769 0.59976089 -1.0582458 225 269
1.8797183 0.58420819 -1.0525297 224 270
1.8249593 0.57243496 -1.0544063 225 271
1.7697507 0.56040096 -1.0544211 224 272
1.7275881 0.55189329 -1.0622401 225 273
1.6730556 0.53979325 -1.0598139 224 274
1.6313565 0.53120625 -1.06557 223 275
1.601349 0.52587819 -1.0794475 225 276
1.54856 0.51391971 -1.0742942 225 277
1.5074968 0.5052287 -1.0772749 224 278
1.4777879 0.49976736 -1.0888832 224 279
1.4253932 0.48755649 -1.0798608 225 280
1.3966883 0.48224047 -1.0906286 225 281
1.3565705 0.47345394 -1.0901601 226 282
1.3160584 0.46444494 -1.0881306 226 283
1.2876996 0.45902911 -1.0968945 226 284
1.2484156 0.45020774 -1.0939492 226 285
1.2196159 0.44452456 -1.1007539 224 286
1.1809109 0.43569252 -1.096243 225 287
1.1524217 0.42996666 -1.1017864 226 288
1.1246743 0.42441863 -1.1075133 226 289
1.0963776 0.41863924 -1.1119647 226 290
1.0688206 0.41303945 -1.1166255 226 291
1.0315398 0.40420628 -1.1085514 226 292
1.0037649 0.39838791 -1.1112559 227 293
0.97613448 0.39255461 -1.1134294 228 294
0.94923955 0.38690463 -1.1158656 227 295
0.23943086 0.1489237 -0.1639192 225 296
0.23052548 0.14681277 -0.16197993 222 297
0.26124871 0.15844868 -0.21845265 220 298
0.19153546 0.13505197 -0.12468775 218 299
0.1902588 0.1354727 -0.1326818 218 300
0.19137898 0.13678443 -0.14488958 216 301
0.19069572 0.13749017 -0.15466349 221 302
0.19757889 0.14324485 -0.20331229 223 305
0.19344078 0.14284408 -0.20904516 225 306
0.19052193 0.14293639 -0.21737738 226 307
0.18957731 0.14384612 -0.23013555 234 308
0.17825364 0.14062679 -0.22154973 239 309
0.16883989 0.13811682 -0.21631457 237 310
0.16316704 0.13711724 -0.21902563 234 311
0.15745932 0.13610306 -0.22165693 235 312
0.15171781 0.1350745 -0.22420792 234 313
0.14594361 0.13403174 -0.22667809 231 314
0.12246203 0.13354343 -0.27963179 226 320
0.11808521 0.13343664 -0.28932154 236 321
0.10862733 0.13306151 -0.3086096 230 323
0.10172005 0.13171965 -0.31048393 227 324
0.094789706 0.13036424 -0.31226087 219 325
0.014761951 0.082331002 0.037523076 225 326
0.01259717 0.081902012 0.037032172 235 327
0.010426473 0.081469066 0.036571801 238 328
0.0082502812 0.081032246 0.036142051 229 329
0.0060690101 0.080591619 0.035743028 219 330
0.050636351 0.12011397 -0.30511427 225 331
0.043797128 0.11871516 -0.30616778 228 332
0.033049762 0.11334558 -0.27155596 221 333
0.026294343 0.11159663 -0.26839656 225 334
0.020857025 0.11142627 -0.28000325 231 335
0.015792392 0.11219978 -0.30147445 233 336
0.0094486605 0.11156097 -0.30998373 233 337
0.0025577489 0.11010002 -0.3104555 234 338
-0.0043371441 0.10862969 -0.31082982 233 339
-0.011234693 0.10715026 -0.3111068 230 340
-0.018133571 0.10566201 -0.31128621 224 341
-0.020064503 0.073272221 0.054295629 223 342
-0.02087817 0.069522321 0.095149457 220 343
-0.021433637 0.06765715 0.11509404 220 344
-0.022584401 0.067490421 0.11413191 220 345
-0.022253685 0.063719586 0.15807801 211 349
-0.022765167 0.063603528 0.15813008 203 350
-0.023275759 0.063487031 0.1581894 210 351
-0.023785364 0.063370124 0.15825595 212 352
-0.024976455 0.063182928 0.15742731 212 354
-0.025495827 0.063061789 0.15751779 212 355
-0.026013786 0.062940322 0.15761563 211 356
-0.026745303 0.062856987 0.15674499 210 357
-0.22260582 0.063460797 -0.33842558 100 368
-0.22388111 0.061637595 -0.32075548 222 369
-0.2440698 0.058018867 -0.32970202 226 371
-0.25113934 0.056205694 -0.32659125 229 372
-0.25816408 0.054393504 -0.32337993 227 373
-0.24484712 0.053300496 -0.27768266 221 374
-0.25120866 0.051639982 -0.27455252 219 375
-0.27895582 0.048966326 -0.31314945 227 376
-0.30029309 0.046394277 -0.33692878 227 377
-0.30744106 0.044494562 -0.33302391 228 378
-0.31453341 0.042598091 -0.32901734 229 379
-0.30596972 0.041764975 -0.29814148 230 380
-0.31258798 0.039973177 -0.29415011 220 381
-0.13654551 0.05221932 0.0046690106 224 382
-0.13695337 0.051692113 0.0096811503 232 383
-0.14383429 0.050631624 0.0046548098 229 384
-0.1463902 0.04992168 0.0064017773 219 385
-0.36545599 0.023427878 -0.23674129 225 391
-0.39090371 0.01954205 -0.25574392 233 392
-0.39691514 0.017776899 -0.25054443 236 393
-0.39302289 0.017177675 -0.23398896 236 394
-0.3880915 0.016756665 -0.21688078 236 395
-0.39357513 0.015109498 -0.21171482 237 396
-0.39898658 0.01347122 -0.20647039 236 397
-0.39390612 0.013176952 -0.19044013 236 398
-0.40958858 0.010222584 -0.19575046 237 399
-0.39266253 0.011551518 -0.1687523 234 400
-0.38592869 0.011603873 -0.152564 230 401
-0.39053804 0.010149065 -0.14741825 229 402
-0.40692431 0.0070501976 -0.15283068 229 403
