# .PCD v0.7 - Point Cloud Data file format
VERSION 0.7
FIELDS x y z intensity index
SIZE 4 4 4 4 4
TYPE F F F F F
COUNT 1 1 1 1 1
WIDTH 1149
HEIGHT 1
VIEWPOINT 0 0 0 1 0 0 0
POINTS 1149
DATA ascii
0.045566879 -0.65050673 -0.065515697 709 255
0.045386836 -0.66163164 -0.05755496 393 256
0.04520883 -0.67173666 -0.048911691 292 257
0.044832844 -0.72183335 -0.055504024 13 258
-0.016074214 -5.8774371 1.4344248 41 291
-0.013765644 -5.5734072 1.4718194 64 292
-0.011412591 -5.2747917 1.5001924 61 293
-0.0073981248 -4.8416452 1.4826494 96 294
-0.005731795 -4.6214843 1.5102559 99 295
-0.0039271899 -4.3961415 1.528843 124 296
-0.0026433729 -4.2201476 1.5556194 164 297
-0.0012697242 -4.0417542 1.5757002 150 298
0.00020507351 -3.8602188 1.5886223 183 299
0.0014231987 -3.7037942 1.6048988 189 300
0.0024345219 -3.5674953 1.6239694 210 301
0.0034493841 -3.4344451 1.6398867 273 302
0.0043799765 -3.3110924 1.65565 298 303
0.0053208433 -3.1900682 1.6683975 287 304
0.0060838051 -3.0849221 1.6847893 349 305
0.0079657696 -2.9025795 1.6586639 351 306
0.0087057129 -2.8052232 1.6705705 431 307
0.0095096715 -2.705719 1.6780844 430 308
0.010006979 -2.6293643 1.6955267 453 309
0.010704923 -2.5412111 1.7035798 494 310
0.011347406 -2.4586809 1.7121871 471 311
0.011893436 -2.3841894 1.7232625 528 312
0.012484204 -2.3084021 1.7310913 556 313
0.013119437 -2.2314301 1.735603 614 314
0.01362754 -2.1639216 1.7443458 665 315
0.014204513 -2.0935881 1.7488073 706 316
0.014611412 -2.034812 1.759883 674 317
0.015418526 -1.9537048 1.7511904 760 318
0.015920796 -1.8919468 1.755533 854 319
0.016262177 -1.8404621 1.7667027 864 320
0.016709466 -1.7839465 1.7718823 918 321
0.017074477 -1.7329386 1.780333 987 322
0.017450627 -1.6821743 1.7874862 995 323
0.017905032 -1.62814 1.7898264 1056 324
0.018167235 -1.5849774 1.8015332 1056 325
0.018587975 -1.5343745 1.8041942 1116 326
0.018869471 -1.4915359 1.8137374 1121 327
0.019295514 -1.4422462 1.814746 1123 328
0.019595055 -1.3998163 1.8221747 1173 329
0.020173827 -1.3449359 1.8131058 1234 330
0.020422455 -1.3062327 1.8222839 1283 331
0.020773727 -1.2633843 1.8250244 1310 332
0.02107865 -1.2231894 1.8299963 1270 333
0.021391045 -1.1831977 1.8340632 1308 334
0.021683769 -1.1445507 1.838888 1420 335
0.021970155 -1.1066334 1.8437009 1340 336
0.02227683 -1.068356 1.8468447 1372 337
0.022469997 -1.0349507 1.8568579 1511 338
0.022803314 -0.9964903 1.857559 1492 339
0.023023374 -0.96269381 1.865285 1586 340
0.023289762 -0.92750615 1.8696914 1545 341
0.023667604 -0.88879925 1.866259 1559 342
0.023893418 -0.85577172 1.8727591 1547 343
0.024164645 -0.82150316 1.8758985 1676 344
0.024506493 -0.78533095 1.8737892 1711 345
0.024646875 -0.75575942 1.8856421 1709 346
0.02498664 -0.72034973 1.8830771 1699 347
0.02524182 -0.68777388 1.8863201 1721 348
0.025477221 -0.6559819 1.8908165 1769 349
0.025793845 -0.62226456 1.8890481 1805 350
0.025927663 -0.59346718 1.9008725 1778 351
0.026217382 -0.56089908 1.900737 1736 352
0.026450392 -0.52989513 1.9047859 1815 353
0.026737833 -0.49786481 1.9044083 1741 354
0.026981574 -0.46697494 1.9073108 1862 355
0.027278656 -0.43521494 1.9057583 1987 356
0.027413869 -0.40658334 1.9173033 1847 357
0.027756469 -0.37438595 1.9116858 1940 358
0.027927851 -0.34513706 1.9202335 1926 359
-0.54628658 -0.046116736 0.17648703 238 0
-0.54637241 -0.046744209 0.18395004 236 1
-0.54635644 -0.047350708 0.19141525 238 2
-0.5462389 -0.047936138 0.19888124 236 3
-0.53036278 -0.04521944 0.20602323 236 4
-0.53005141 -0.045746293 0.21326533 237 5
-0.51498389 -0.043146934 0.21978633 235 6
-0.54475188 -0.050064836 0.22872421 237 7
-0.54412639 -0.050543252 0.23617253 237 8
-0.54339957 -0.050999958 0.243613 238 9
-0.54257166 -0.051434901 0.25104421 236 10
-0.54164273 -0.051847961 0.25846472 237 11
-0.54061294 -0.052239079 0.26587313 237 12
-0.53948259 -0.052608181 0.27326795 238 13
-0.53825188 -0.052955192 0.28064781 237 14
-0.53692091 -0.053280029 0.28801128 237 15
-0.5354901 -0.053582665 0.29535693 235 16
-0.54830277 -0.057087835 0.30566254 238 17
-0.53232986 -0.054121021 0.30998918 236 18
-0.53060102 -0.054356646 0.31727296 237 19
-0.54297256 -0.057814296 0.3281194 238 20
-0.54099327 -0.058010329 0.33555585 237 21
-0.53891325 -0.058183227 0.34296536 237 22
-0.52270252 -0.055074487 0.3461597 236 23
-0.53445274 -0.058459494 0.35769784 238 24
-0.53207314 -0.058562804 0.36501798 238 25
-0.5295946 -0.058642883 0.37230545 236 26
-0.52701753 -0.058699716 0.37955892 238 27
-0.53895098 -0.062220518 0.39229316 237 28
-0.53609854 -0.062231112 0.39968145 235 29
-0.5300948 -0.062180456 0.41433865 236 31
-0.52694482 -0.062119219 0.42160481 237 32
-0.53699166 -0.065298468 0.43495864 237 33
-0.53355849 -0.065186545 0.442325 236 34
-0.5300259 -0.06505011 0.44964373 237 35
-0.5263949 -0.064889193 0.45691365 237 36
-0.52266592 -0.064703807 0.46413326 237 37
-0.53252536 -0.067954078 0.47883338 238 38
-0.52849567 -0.067713499 0.48614246 237 39
-0.53783649 -0.070894539 0.50131482 239 40
-0.5334987 -0.070596293 0.50870198 240 41
-0.52906179 -0.070272505 0.51602876 239 42
-0.53683031 -0.073130861 0.53125173 237 43
-0.53208494 -0.072747052 0.53862864 239 44
-0.54012245 -0.075738698 0.55479902 238 45
-0.53505516 -0.075292021 0.56222558 238 46
-0.52988833 -0.074818894 0.56958151 236 47
-0.53634137 -0.077475414 0.58568132 238 48
-0.53085452 -0.076937512 0.59305859 238 49
-0.52526897 -0.076372832 0.60035932 237 50
-0.5316816 -0.079107091 0.61751354 240 51
-0.52576244 -0.078474298 0.62482923 239 52
-0.53082216 -0.080903679 0.64169383 237 53
-0.52457386 -0.08020173 0.64900064 238 54
-0.52975309 -0.082734615 0.66682827 240 55
-0.52316272 -0.081960604 0.67412335 238 56
-0.5277012 -0.084385589 0.69226056 237 57
-0.53114641 -0.086545169 0.70993096 238 58
-0.52396816 -0.08565104 0.71725148 238 59
-0.52745444 -0.08789739 0.73587942 239 60
-0.52986407 -0.08987768 0.75399005 238 61
-0.52208585 -0.088857844 0.7612983 240 62
-0.52448958 -0.090914547 0.78035927 242 63
-0.51635379 -0.089814469 0.78759521 238 64
-0.51744753 -0.091554269 0.8061105 240 65
-0.51874131 -0.09341079 0.82554519 241 66
-0.5195992 -0.09518981 0.8451407 239 67
-0.51942754 -0.096703053 0.8641023 240 68
-0.51941282 -0.09832412 0.88398468 240 69
-0.51838326 -0.099679723 0.90319967 240 70
-0.51748204 -0.10113721 0.92333508 240 71
-0.51558167 -0.10232972 0.94276935 239 72
-0.51378119 -0.1036181 0.96312302 240 73
-0.5193609 -0.10747065 0.99608654 237 74
-0.50828719 -0.1057563 1.0032789 238 75
-0.51260334 -0.10937782 1.0366297 239 76
-0.50878352 -0.11028276 1.057428 239 77
-0.50401646 -0.11092529 1.0774243 237 78
-0.50668818 -0.11432512 1.1122458 238 79
-0.50081599 -0.11475265 1.1324223 238 80
-0.5151661 -0.1227753 1.1941175 237 81
-0.51508337 -0.12566766 1.229736 236 82
-0.51370752 -0.12823449 1.2646595 234 83
-0.51147372 -0.13063693 1.2997541 235 84
-0.51462942 -0.13535802 1.3495185 234 85
-0.51046693 -0.13739054 1.3849925 235 86
-0.51091826 -0.14151686 1.4343576 230 87
-0.51611745 -0.14793377 1.4996817 230 88
-0.50873345 -0.14934014 1.5356882 231 89
-0.50570673 -0.15287699 1.5866879 229 90
-0.50106817 -0.15601747 1.6369363 227 91
-0.50028521 -0.16128133 1.7033679 226 92
-0.49749252 -0.16607247 1.7691267 227 93
-0.50596619 -0.17687795 1.8798425 227 94
-0.48679703 -0.17464602 1.9012989 237 95
-0.46739489 -0.17242686 1.9235045 235 96
-0.44370061 -0.16803931 1.930087 235 97
-0.41635016 -0.16160111 1.9208696 235 98
-0.39270845 -0.15716554 1.9267309 236 99
-0.36899453 -0.1526878 1.9322591 235 100
-0.34246004 -0.14640063 1.9228144 237 101
-0.31881589 -0.14187938 1.9276326 236 102
-0.2951138 -0.13731886 1.9321175 234 103
-0.27135828 -0.13271993 1.9362683 237 104
-0.22370546 -0.12341048 1.9435645 235 106
-0.19981728 -0.11870173 1.9467086 236 107
-0.17589404 -0.11395817 1.9495156 237 108
-0.15072604 -0.10763124 1.9361067 234 109
-0.12696326 -0.10286431 1.9382192 236 110
-0.10317946 -0.098065615 1.9399964 236 111
-0.079379193 -0.093236059 1.941438 235 112
-0.055567034 -0.088376626 1.9425436 232 113
-0.03174758 -0.083488181 1.9433131 235 114
-0.007925408 -0.078571737 1.9437464 235 115
0.015894903 -0.073628202 1.9438435 234 116
0.039708778 -0.068658516 1.9436041 238 117
0.063511617 -0.063663647 1.9430282 235 118
0.087298848 -0.058644582 1.9421164 235 119
0.11106589 -0.053602252 1.9408685 237 120
0.13619855 -0.049548071 1.9551922 238 121
0.16012783 -0.044415746 1.9532555 238 122
0.18402293 -0.039262917 1.9509805 238 123
0.20787923 -0.03409056 1.948368 237 124
0.23169215 -0.028899658 1.9454182 238 125
0.25545716 -0.023691248 1.9421318 236 126
0.28168467 -0.019150149 1.9532809 236 127
0.30554044 -0.013865273 1.9492896 236 128
0.33244392 -0.0092003383 1.9606428 237 129
0.35638353 -0.0038395561 1.9559357 237 130
0.38025114 0.0015339069 1.9508898 236 131
0.40778816 0.0064276941 1.9610538 236 132
0.43541807 0.011455681 1.9698111 238 133
0.45944896 0.016954128 1.9636509 236 134
0.48338813 0.022461284 1.9571507 237 135
0.51181465 0.027676914 1.965638 236 136
0.54025543 0.033011261 1.9727082 235 137
0.56429172 0.038631719 1.9650682 236 138
0.59341896 0.044102337 1.9722173 234 139
0.62250072 0.049679723 1.9779434 237 140
0.64658153 0.055404242 1.9691427 236 141
0.67634767 0.061120775 1.9749072 235 142
0.70036948 0.066895172 1.9653456 237 143
0.7304678 0.072756127 1.9701872 235 144
0.7604202 0.078703269 1.9736023 235 145
0.79100788 0.084749386 1.9774226 235 146
0.82140857 0.090873271 1.9798149 237 147
0.85245252 0.097099647 1.9825892 235 148
0.883268 0.10339521 1.9839357 233 149
0.91473401 0.10979672 1.9856402 235 150
0.9464038 0.11628523 1.9867983 236 151
0.97778296 0.12282981 1.9865303 232 152
1.0098217 0.12948515 1.986585 235 153
1.0415282 0.13618766 1.9852171 233 154
1.0738996 0.14300394 1.9841477 232 155
1.1144087 0.15052228 1.9951918 233 156
1.1472572 0.15754083 1.9928608 232 157
1.1796882 0.16458829 1.9891137 234 158
1.2212765 0.17251034 1.9979615 234 159
1.2633134 0.18059352 2.0059791 234 160
1.2969697 0.18799241 2.0010476 233 161
1.3396976 0.19634756 2.0074935 232 162
1.3828309 0.20485736 2.0130785 233 163
1.4170582 0.21254544 2.0060599 233 164
1.4607985 0.22131406 2.0100205 232 165
1.5048991 0.23023027 2.0130918 232 166
1.5493436 0.23929143 2.0152631 232 167
1.604689 0.24971692 2.0284719 230 168
1.6391996 0.25783831 2.01687 231 169
1.6954676 0.26863062 2.0279355 233 170
1.7412791 0.27828985 2.0262649 231 171
1.7985474 0.28948131 2.0349896 230 172
1.8450102 0.29944396 2.0312612 230 173
1.9031929 0.31102082 2.0375957 229 174
1.9727895 0.32424372 2.0528233 228 175
2.0202901 0.33469927 2.045702 229 176
2.0798833 0.34688869 2.0481269 228 177
2.1512167 0.36083305 2.0589428 228 178
2.1995544 0.37174767 2.0483315 226 179
2.2726784 0.38625872 2.0567665 228 180
2.3456361 0.40092543 2.0628729 228 181
2.4191577 0.41584879 2.0672724 225 182
2.493211 0.43102336 2.0699494 225 183
2.580621 0.4483543 2.0802171 224 184
2.6565716 0.46417618 2.079797 224 185
2.7575314 0.48396987 2.0943973 222 186
2.8469496 0.5022403 2.098273 221 187
2.9369531 0.52080953 2.099982 221 188
3.0401082 0.54164684 2.1073911 221 189
3.1312606 0.56082726 2.1045411 219 190
4.0164223 0.73662329 2.2049239 210 196
4.1119847 0.75838852 2.1816528 213 197
4.2488699 0.78737062 2.1751878 212 198
4.6665869 0.87110388 2.213093 213 200
4.8777127 0.91410375 2.2239425 211 201
5.088985 0.95762008 2.2288423 210 202
5.3306932 1.006999 2.2394254 210 203
5.6309404 1.0673543 2.2645962 211 204
6.0332022 1.1466982 2.316906 210 205
6.1040645 1.1671826 2.2464628 216 206
6.1300173 1.1796163 2.1602921 214 207
6.1406517 1.1892481 2.0694418 213 208
6.1339092 1.1956447 1.9739789 213 209
6.1865191 1.2129769 1.895676 213 210
6.1771812 1.2188191 1.8003964 212 211
6.1970315 1.2300736 1.7131337 214 212
6.2310233 1.244004 1.6290978 212 213
6.2033448 1.2462354 1.5313501 213 214
6.2493954 1.2624806 1.449661 216 215
6.2798991 1.2758026 1.3642001 217 216
6.2937727 1.2859379 1.2754285 217 217
6.2909093 1.2928098 1.1840169 218 218
6.317874 1.3055001 1.0972793 217 219
6.3280973 1.3149235 1.0079358 217 220
6.3526959 1.3272029 0.92021048 216 221
6.3751359 1.3390887 0.83180898 215 222
6.3817234 1.3478251 0.74162138 216 223
6.4027243 1.3594754 0.6524424 217 224
6.4068584 1.3677357 0.56184125 216 225
6.4401021 1.3819463 0.47247148 216 226
6.456459 1.3927579 0.38174114 212 227
4.7804904 1.0538523 0.26577032 206 228
4.7798848 1.0592602 0.19802529 211 229
4.7783556 1.0644765 0.1302797 211 230
4.7445998 1.0629216 0.063414514 212 231
4.7412481 1.0677197 -0.0038507581 168 232
5.9695797 1.3341851 -0.14016928 213 233
3.2127306 0.75225168 -0.031525567 180 234
3.1179667 0.73565656 -0.069514856 218 235
3.0977669 0.73495191 -0.11229037 213 236
3.1562676 0.76629925 -0.34717232 217 241
3.1776111 0.77485424 -0.39758909 217 242
3.1684887 0.77665019 -0.44278836 216 243
3.1883495 0.78498083 -0.49423176 217 244
3.1921804 0.78975105 -0.54287887 215 245
3.1962464 0.7946105 -0.59202105 216 246
3.1995859 0.79934174 -0.64144188 216 247
3.2304277 0.81044674 -0.69890523 217 248
3.2171822 0.81144983 -0.74489051 217 249
3.2331805 0.81926405 -0.79983914 218 250
3.2324955 0.82324862 -0.85036135 217 251
3.2319815 0.8273102 -0.90139031 213 252
3.2877517 0.84473568 -0.97279263 217 253
3.1847012 0.82454288 -0.98782706 215 254
2.6357269 0.71186626 -1.0054189 220 259
2.549592 0.69439089 -1.0106742 220 260
2.4779172 0.68030107 -1.0205778 220 261
2.4065092 0.66612107 -1.0286987 221 262
2.3345382 0.6516422 -1.0345935 221 263
2.2637751 0.63730615 -1.0391639 222 264
2.1933827 0.622904 -1.0419803 223 265
2.1233954 0.6084435 -1.0430529 222 266
2.078995 0.60038787 -1.0574214 223 267
1.9972365 0.58259934 -1.0477062 224 268
1.9532735 0.57442719 -1.0595353 224 269
1.8979698 0.56320304 -1.0628617 223 270
1.8551215 0.55513209 -1.0730932 223 271
1.7867483 0.54021448 -1.0644619 224 272
1.7443982 0.53206086 -1.0724136 223 273
1.7022032 0.52386212 -1.0794188 224 274
1.6477461 0.51226223 -1.0759901 224 275
1.6060461 0.50399864 -1.0809419 225 276
1.5645552 0.4957028 -1.0849665 225 277
1.5232905 0.48737878 -1.0880705 225 278
1.4822692 0.47903067 -1.0902605 224 279
1.4525173 0.47374424 -1.1012542 225 280
1.4002981 0.46207398 -1.0912697 226 281
1.3601156 0.45367908 -1.0907514 224 282
1.3315449 0.44851223 -1.1002033 227 283
1.3022997 0.44310379 -1.1084135 227 284
1.2627968 0.43466076 -1.1055776 224 285
1.2236472 0.4262208 -1.1018798 226 286
1.1948819 0.42074925 -1.1080962 226 287
1.1668589 0.4154458 -1.1144823 228 288
1.1382624 0.40991926 -1.1195959 226 289
1.10021 0.4014681 -1.1129693 228 290
1.0719857 0.39591807 -1.1168482 226 291
1.0445021 0.39054021 -1.1209497 224 292
1.016525 0.38495409 -1.1237588 226 293
0.97976398 0.37654108 -1.1143126 225 294
0.96159148 0.37392837 -1.1285715 228 295
0.93463123 0.36848998 -1.1306008 225 296
0.90725583 0.3628583 -1.1313202 227 297
0.88005841 0.35722151 -1.1315242 222 298
0.23500678 0.14618376 -0.18948434 228 299
0.22545221 0.14395073 -0.18646137 227 300
0.22171977 0.14366473 -0.19245799 225 301
0.21989335 0.14404868 -0.20180573 227 302
0.22131385 0.14559712 -0.21714674 226 303
0.2194688 0.14605539 -0.22745194 225 304
0.22114891 0.14781515 -0.24471931 230 305
0.20362249 0.14266898 -0.22631977 238 306
0.19378944 0.140238 -0.2215821 238 307
0.18717033 0.13896573 -0.22285061 239 308
0.17929563 0.13720511 -0.22133602 240 309
0.16945893 0.13465808 -0.215187 239 310
0.16380259 0.13370259 -0.21788348 237 311
0.15811136 0.13273335 -0.22050045 237 312
0.15238632 0.13175052 -0.22303738 237 313
0.1462692 0.1306044 -0.22457276 236 314
0.13979912 0.12930177 -0.22509046 236 315
0.13268159 0.12770413 -0.22364427 238 316
0.12467378 0.12568222 -0.21926965 234 317
0.043244146 0.090786189 0.00070920587 224 319
0.038876377 0.089485191 0.0055212677 228 320
0.032768086 0.087269962 0.017096102 228 321
0.10290843 0.12858444 -0.31018376 229 324
0.095979325 0.12728865 -0.31195313 232 325
0.089028351 0.12598033 -0.31362492 227 326
0.082056873 0.12465975 -0.31519878 223 327
0.0090982951 0.079836711 0.047860697 232 328
0.0054438487 0.078309007 0.057263196 240 329
0.0037036184 0.07805562 0.055936843 240 330
0.0019324496 0.077793986 0.054632634 241 331
0.00037698075 0.077736527 0.051377848 239 332
-0.0010433998 0.077867359 0.04616186 237 333
-0.0021209838 0.078473002 0.036005616 226 334
0.020252397 0.10720374 -0.25877762 219 335
0.014050717 0.10596325 -0.25937295 229 336
0.0078429468 0.10471433 -0.25988078 234 337
0.0037724469 0.10804799 -0.31104887 237 338
-0.0031361356 0.10664211 -0.31141841 237 339
-0.010047502 0.10522769 -0.31169051 238 340
-0.016975574 0.10282487 -0.29990512 235 341
-0.023774782 0.10174337 -0.30396748 236 342
-0.030785007 0.1009359 -0.3119213 236 343
-0.037378501 0.098904431 -0.30383068 235 344
-0.044599548 0.098037019 -0.31158715 233 345
-0.051499695 0.0965771 -0.31127381 222 346
-0.031309426 0.073276758 0.025342017 227 347
-0.032498829 0.072041512 0.037437081 230 348
-0.032182064 0.070227183 0.060453758 227 349
-0.031129204 0.066184416 0.1126237 227 353
-0.033299357 0.066200756 0.10690141 240 354
-0.032811292 0.065563589 0.11594344 244 355
-0.030271225 0.064635649 0.13376671 239 356
-0.03667891 0.065362953 0.10855775 238 357
-0.04035924 0.065451398 0.098109812 245 358
-0.042159427 0.065210514 0.096477777 222 359
-0.044261403 0.064983293 0.09391059 158 360
-0.11566937 0.058021478 -0.002573967 225 375
-0.11560085 0.057488643 0.0041232258 228 376
-0.11209492 0.057168245 0.016966924 228 377
-0.10969952 0.056842715 0.02704747 220 378
-0.1021352 0.056888763 0.045732543 220 379
-0.318095 0.039387554 -0.28956747 220 382
-0.34987548 0.035673074 -0.32496643 223 383
-0.3568584 0.033843957 -0.32034403 224 384
-0.37217823 0.031287044 -0.32802671 228 385
-0.37919563 0.029425066 -0.32308966 224 386
-0.38614339 0.027569413 -0.31805295 227 387
-0.40250939 0.024797585 -0.3257668 225 388
-0.36238816 0.027634922 -0.25840557 235 389
-0.33958071 0.028963875 -0.216637 235 390
-0.34509084 0.027451601 -0.21214546 230 391
-0.35053799 0.02594601 -0.20757546 229 392
-0.34623653 0.025528986 -0.19152452 232 393
-0.36123902 0.022956073 -0.19820388 231 394
-0.17166755 0.043853894 0.028365895 236 396
-0.17609015 0.042580217 0.032703951 232 398
-0.17825592 0.041948989 0.034920171 224 399
-0.38101441 0.015552241 -0.15788941 219 400
-0.39655834 0.012744132 -0.16306736 225 401
-0.43573689 0.0067548379 -0.18944402 232 402
-0.4289856 0.0068125241 -0.17297037 232 403
-0.44587192 0.0036859065 -0.17766507 232 404
-0.43867743 0.0038512014 -0.16138084 233 405
-0.44340229 0.0023872368 -0.15548255 235 406
-0.44804525 0.00093478337 -0.14951675 234 407
-0.44084871 0.0011897087 -0.13432463 235 408
-0.44520417 -0.00020026043 -0.12839209 235 409
-0.4494774 -0.0015782379 -0.12239723 235 410
-0.4407472 -0.0010128208 -0.10710339 234 411
-0.44473177 -0.0023258813 -0.10116865 234 412
-0.44863421 -0.0036265217 -0.095176801 233 413
-0.4524537 -0.0049144961 -0.089129075 235 414
-0.44363469 -0.00423095 -0.075055405 235 415
-0.44718161 -0.0054567195 -0.06907557 232 416
-0.45064592 -0.006669458 -0.063044861 235 417
-0.45402691 -0.0078689568 -0.056964412 235 418
-0.44177404 -0.0065340512 -0.042126492 234 419
-0.44400269 -0.007522542 -0.035696834 235 420
-0.44438416 -0.0082037635 -0.028328136 234 421
-0.44288254 -0.0085641108 -0.020095706 234 422
-0.43591148 -0.0079939254 -0.0093368143 234 423
-0.43409663 -0.0082694404 -0.0013459027 236 424
-0.42675093 -0.0075889267 0.009015888 231 425
-0.40925863 -0.0051363446 0.023504004 220 426
-0.40328711 -0.0046275295 0.032470703 230 427
-0.40172374 -0.0048670657 0.039381385 232 428
-0.39728966 -0.0045918487 0.047295481 230 429
-0.3991845 -0.0054220743 0.052637234 222 430
-0.40007761 -0.006073501 0.058339179 217 431
-0.39995593 -0.0065401234 0.064361155 213 432
-0.39787087 -0.0066464953 0.070969075 213 433
-0.39285952 -0.0062098391 0.078375824 217 434
-0.39433229 -0.0069475658 0.083659165 217 435
-0.39668027 -0.0078471638 0.088697158 216 436
-0.39896211 -0.0087368898 0.093782336 217 437
-0.40308544 -0.0099739321 0.098433591 219 438
-0.4100242 -0.01174878 0.10250407 220 439
-0.4217214 -0.014440339 0.10568811 224 440
-0.42954993 -0.016418647 0.10998513 236 441
-0.43154487 -0.017292384 0.11560471 234 442
-0.43443194 -0.018340942 0.12109434 225 443
-0.43918562 -0.019757178 0.12633504 224 444
-0.43319279 -0.019080024 0.13329524 231 445
-0.43390405 -0.019706573 0.13915546 233 446
-0.43453521 -0.020317364 0.14502652 233 447
-0.43606156 -0.021106523 0.15080324 236 448
-0.43848631 -0.022078011 0.15652576 235 449
-0.44278899 -0.023432475 0.16215785 236 450
-0.45092902 -0.025573622 0.16765581 229 451
-0.50695151 -0.037490714 0.17098376 231 452
0.04777408 -0.33853215 1.9198092 1761 0
0.043988246 -0.30806684 1.9198632 1912 1
0.040182114 -0.27867326 1.926299 1961 2
0.036413223 -0.24851981 1.9272594 1877 3
0.032640517 -0.21861674 1.9296726 1900 4
0.028839145 -0.18895908 1.9345455 1971 5
0.025096148 -0.15889858 1.9349093 1834 6
0.021214606 -0.12935914 1.9437281 1836 7
0.017505918 -0.099177659 1.9420396 1891 8
0.013647899 -0.069238797 1.9478161 1830 9
0.0097560063 -0.039118782 1.9540654 1877 10
0.0059285425 -0.0088341087 1.9567842 1871 11
0.0019619279 0.021707311 1.9639642 1842 12
-0.0018429905 0.052211747 1.9646095 1872 13
-0.0058661364 0.083226129 1.9716972 1805 14
-0.0099100098 0.11451559 1.9782255 1688 15
-0.013936721 0.1459689 1.9831933 1738 16
-0.017784283 0.17705052 1.9826299 1706 17
-0.021989189 0.20939158 1.9904227 1649 18
-0.026093408 0.2416117 1.9946525 1591 19
-0.030211166 0.27405566 1.9982886 1654 20
-0.034340978 0.30671269 2.0013251 1676 21
-0.038627833 0.34018362 2.0066888 1611 22
-0.042935759 0.37394696 2.0114174 1659 23
-0.046893202 0.40632749 2.0087132 1640 24
-0.051334031 0.44103181 2.0141082 1624 25
-0.055287763 0.47361964 2.0101786 1673 26
-0.060285725 0.51139891 2.0228581 1496 27
-0.064974859 0.54794854 2.0290463 1420 28
-0.068880469 0.5807116 2.0222101 1502 29
-0.075020641 0.62521589 2.0476503 1324 30
-0.079610884 0.66195691 2.0487356 1380 31
-0.084486052 0.70041668 2.0527918 1321 32
-0.089596123 0.74038756 2.0588112 1315 33
-0.094596058 0.77998984 2.0621538 1250 34
-0.10006148 0.82244885 2.0700972 1345 35
-0.10526811 0.86370111 2.0735114 1171 36
-0.11050066 0.90533435 2.0760353 1124 37
-0.11552013 0.94593906 2.0750105 1191 38
-0.11732969 0.96763885 2.0381558 684 39
-0.11646636 0.97305071 1.9742844 553 40
-0.11613086 0.98114443 1.9185108 609 41
-0.11278124 0.97033572 1.8350381 650 42
-0.11165854 0.97256899 1.7768019 591 43
-0.11113209 0.97807455 1.7264581 670 44
-0.11061539 0.98328412 1.6780504 765 45
-0.11021155 0.98887587 1.632362 686 46
-0.10974987 0.99379635 1.5877358 700 47
-0.10904765 0.99687982 1.5425953 765 48
-0.10349403 0.9682126 1.4597242 138 49
-0.10233468 0.96752787 1.4150411 140 50
-0.10192086 0.97144985 1.3775637 140 51
-0.10108975 0.9723978 1.338098 194 52
-0.10145402 0.98106503 1.3084666 202 53
-0.099368542 0.97320271 1.2623482 172 54
-0.099945292 0.9829582 1.2359324 175 55
-0.098869249 0.98142695 1.199088 189 56
-0.098427176 0.98400331 1.16739 218 57
-0.097140625 0.98064482 1.1312305 214 58
-0.096399337 0.98083353 1.0994233 254 59
-0.097102463 0.99085486 1.0768899 248 60
-0.095973864 0.98809278 1.0442184 240 61
-0.095982134 0.99310148 1.0186827 274 62
-0.095019817 0.99121189 0.98842019 258 63
-0.094997421 0.99580395 0.96376288 227 64
-0.09445174 0.99661148 0.93689394 307 65
-0.098337799 1.0288374 0.93201959 1443 66
-0.09907943 1.0387712 0.91153979 1402 67
-0.09824793 1.0373976 0.88405156 1351 68
-0.097935036 1.0396492 0.85940379 1387 69
-0.098271847 1.0465257 0.83788359 1420 70
-0.098078743 1.0495189 0.81438577 1274 71
-0.098067835 1.05378 0.79191601 1572 72
-0.097640648 1.0549458 0.76812392 1534 73
-0.097640768 1.0591853 0.74622381 1437 74
-0.097466916 1.0621014 0.72392589 1630 75
-0.096262246 1.0573359 0.69844288 1587 76
-0.09585692 1.0584128 0.67602026 1604 77
-0.094906762 1.055371 0.65221602 1692 78
-0.095137775 1.0610963 0.63224334 1573 79
-0.094207168 1.0580776 0.6091333 1534 80
-0.093348905 1.0555322 0.58658707 1784 81
-0.09306328 1.0572565 0.5657981 1453 82
-0.091857284 1.0519563 0.54302335 1623 83
-0.092102498 1.0576411 0.52384865 1545 84
-0.091177195 1.0543722 0.50225317 1620 85
-0.090957776 1.0564637 0.48232007 1509 86
-0.091070667 1.0610965 0.4630785 1645 87
-0.09013623 1.0576344 0.4421002 1645 88
-0.089911178 1.0596229 0.42246562 1697 89
-0.089392141 1.0593113 0.40248814 1716 90
-0.089081496 1.0606014 0.38290092 1781 91
-0.088352263 1.0585996 0.36291349 1612 92
-0.088458329 1.0631329 0.34390152 1638 93
-0.088020995 1.0633938 0.32436281 1916 94
-0.021844864 0.54523456 0.24916048 620 96
-0.021306597 0.54290694 0.2387991 106 97
-0.01727552 0.51263046 0.22756892 1027 98
-0.01683078 0.51092041 0.21790679 1098 99
-0.070935234 0.95509398 0.1732861 125 102
-0.070550546 0.95537442 0.15583701 147 103
-0.070855603 0.96129233 0.13794802 131 104
-0.069546103 0.95403582 0.12097548 152 105
-0.069047816 0.95340621 0.10350351 97 106
-0.069228373 0.95838368 0.085295126 150 107
-0.068531469 0.95614821 0.067858934 126 108
-0.067916118 0.95459139 0.050308779 115 109
-0.067614846 0.95566124 0.03225024 171 110
-0.067504078 0.95835483 0.013725504 118 111
-0.066190951 0.95099461 -0.0028623194 125 112
-0.066340901 0.95594025 -0.02217862 189 113
-0.065983608 0.95666063 -0.040761411 23 114
-0.065581411 0.95703751 -0.059437469 142 115
-0.064238466 0.94943094 -0.07599248 159 116
-0.063310079 0.94535184 -0.093531057 139 117
-0.062454678 0.94190896 -0.11132036 148 118
-0.061778069 0.94002533 -0.12973036 137 119
-0.061812349 0.94433373 -0.15056579 71 120
-0.060828261 0.93986827 -0.1684242 77 121
-0.060121641 0.9378444 -0.18735774 115 122
-0.040472791 0.78055757 -0.19193213 2818 126
-0.034800343 0.73369694 -0.18574317 1747 127
-0.034049556 0.73442382 -0.22072627 621 129
-0.032128811 0.72088468 -0.23066069 1103 130
0.051156159 -0.01233818 0.093734488 830 179
0.14347516 -0.64900893 -0.456496 454 233
0.14052805 -0.63296598 -0.41680855 295 234
0.14316961 -0.6542393 -0.41676259 355 235
0.13824904 -0.62441909 -0.36617845 1320 236
0.13954552 -0.63648897 -0.35773879 1455 237
0.13985473 -0.64182448 -0.3430326 745 238
0.14099213 -0.65281409 -0.33355832 652 239
0.14353238 -0.67352289 -0.33221555 1178 240
0.14474775 -0.68513626 -0.32276142 622 241
0.14482337 -0.68881232 -0.30691284 542 242
0.1467728 -0.70558733 -0.30132151 1662 243
0.14734834 -0.71275055 -0.28824919 1976 244
0.14869297 -0.72534662 -0.27909321 690 245
0.1489777 -0.7304402 -0.2646178 1713 246
0.15097028 -0.74770784 -0.25827557 463 247
0.15377037 -0.77084857 -0.25517476 309 248
0.15739277 -0.80004221 -0.25500137 108 249
0.50145507 -3.3188286 -1.5513463 82 252
0.52310115 -3.4902806 -1.5658011 39 253
0.5471006 -3.6801348 -1.5830585 29 254
0.57407522 -3.8931708 -1.6042848 38 255
0.60037374 -4.1025863 -1.6161005 26 256
0.63271487 -4.3582659 -1.6401986 29 257
0.71400678 -4.9808936 -1.8043385 13 258
0.71264011 -5.5900688 1.4000393 46 292
0.67300379 -5.2766843 1.4294164 81 293
0.61856991 -4.835885 1.4159288 80 294
0.58915752 -4.6044197 1.4433315 112 295
0.56235117 -4.3935547 1.4687731 121 296
0.53866613 -4.2079287 1.4948012 116 297
0.5171634 -4.0397615 1.520267 163 298
0.49508303 -3.8654366 1.5379422 172 299
0.47655821 -3.7206814 1.560514 215 300
0.45787662 -3.5735514 1.5773358 222 301
0.44022226 -3.4343517 1.5924081 255 302
0.42545593 -3.3195045 1.6131823 292 303
0.4108175 -3.2049882 1.6303495 300 304
0.39763963 -3.1025996 1.6494262 352 305
0.3759436 -2.9237278 1.6276201 348 306
0.3618325 -2.8112042 1.6331502 406 307
0.35043335 -2.7221961 1.6473823 366 308
0.33914387 -2.6335509 1.6589274 474 309
0.32825649 -2.5479164 1.6693041 467 310
0.31860673 -2.4729462 1.6833045 515 311
0.30849355 -2.3932068 1.6919405 545 312
0.29921642 -2.3205876 1.70259 584 313
0.28896677 -2.2384353 1.7044332 606 314
0.28121382 -2.178911 1.7193464 669 315
0.2724905 -2.1098936 1.7255721 676 316
0.26521599 -2.0540242 1.7394719 738 317
0.2552731 -1.9724519 1.7315519 728 318
0.24760164 -1.9118695 1.7376103 807 319
0.24049287 -1.8562427 1.7458684 868 320
0.23353308 -1.8016549 1.753299 911 321
0.2268725 -1.7495848 1.7612926 931 322
0.21998137 -1.6948683 1.7652036 921 323
0.21389519 -1.6476972 1.7746187 1004 324
0.20757827 -1.597893 1.7800255 1000 325
0.20105559 -1.5456297 1.7812866 1098 326
0.1956201 -1.5039804 1.7921683 1064 327
0.18963492 -1.4564214 1.7953788 1167 328
0.1840979 -1.4131174 1.8019347 1228 329
0.17787865 -1.3623422 1.7982626 1235 330
0.17264563 -1.3215125 1.8049573 1295 331
0.16728523 -1.2790164 1.8083409 1276 332
0.162204 -1.2391919 1.8139164 1313 333
0.15743394 -1.2024792 1.8226285 1435 334
0.15258849 -1.1646881 1.8289032 1402 335
0.1475831 -1.1248062 1.831028 1475 336
0.1427747 -1.0868222 1.8347651 1486 337
0.13810188 -1.0500956 1.8393611 1403 338
0.13346794 -1.0135289 1.8431646 1536 339
0.12895697 -0.97813541 1.8479151 1590 340
0.12424624 -0.93997407 1.8466744 1591 341
0.12007649 -0.90822709 1.8560746 1443 342
0.11570615 -0.87371147 1.8595126 1626 343
0.11137087 -0.83934104 1.8622419 1618 344
0.1072558 -0.80765951 1.8697062 1749 345
0.10303955 -0.7743386 1.8729076 1686 346
0.098959744 -0.74270022 1.8791277 1677 347
0.094871186 -0.71069509 1.8838165 1738 348
0.090583488 -0.67516118 1.8785558 1705 349
0.086718969 -0.64616513 1.8894739 1789 350
0.082648963 -0.61340314 1.8894808 1744 351
0.078710236 -0.58267897 1.8945564 1798 352
0.074811563 -0.5525375 1.9009768 1799 353
0.070818245 -0.51985431 1.8982011 1782 354
0.06697914 -0.49053359 1.9063848 1805 355
0.063067235 -0.45864916 1.9043502 1881 356
0.059236951 -0.4290024 1.9104822 1833 357
0.055398911 -0.39843428 1.9121763 1933 358
0.051581953 -0.36830825 1.915278 1796 359
-0.39613369 -0.054993145 0.18433765 237 0
-0.40375596 -0.057805471 0.18962957 238 1
-0.40366709 -0.058225945 0.19514701 225 2
-0.53707439 -0.1005243 0.2025445 226 3
-0.5367564 -0.10103033 0.20999654 232 4
-0.55158287 -0.10632303 0.21810293 235 5
-0.55105191 -0.1067799 0.22576888 235 6
-0.55041933 -0.1072045 0.23342897 237 7
-0.54968524 -0.10759682 0.24108171 236 8
-0.54884988 -0.10795673 0.24872567 234 9
-0.54791331 -0.10828417 0.25635934 237 10
-0.54687566 -0.10857908 0.26398128 235 11
-0.55986977 -0.11342616 0.27365169 235 12
-0.55859727 -0.11366204 0.28145099 236 13
-0.55722171 -0.1138644 0.28923368 234 14
-0.55574328 -0.11403314 0.29699832 237 15
-0.55416238 -0.11416826 0.30474341 237 16
-0.55247927 -0.11426971 0.31246743 237 17
-0.55069423 -0.1143375 0.32016891 236 18
-0.54880768 -0.11437156 0.32784638 235 19
-0.54681993 -0.11437195 0.33549833 238 20
-0.54473138 -0.11433866 0.34312332 237 21
-0.5425424 -0.11427165 0.3507199 237 22
-0.55477762 -0.11908226 0.36286145 237 23
-0.55232209 -0.11894416 0.37060827 237 24
-0.54976475 -0.11877146 0.37832138 235 25
-0.54710591 -0.11856423 0.38599926 238 26
-0.52732509 -0.11316327 0.39562064 237 28
-0.53852659 -0.11773568 0.40880695 238 29
-0.54946452 -0.12225581 0.42236406 236 30
-0.54622072 -0.12186625 0.43004817 237 31
-0.5428763 -0.12144152 0.43768704 237 32
-0.53943181 -0.12098173 0.4452793 237 33
-0.54867166 -0.12500396 0.45924005 236 34
-0.54493833 -0.12446114 0.46692145 238 35
-0.54110456 -0.12388269 0.47455058 236 36
-0.53717113 -0.12326869 0.48212603 241 37
-0.54637188 -0.12737554 0.49727905 236 38
-0.54213411 -0.1266731 0.50493622 237 39
-0.5377965 -0.12593463 0.51253378 240 40
-0.53335983 -0.12516019 0.52007043 237 41
-0.54081523 -0.12873727 0.53541744 238 42
-0.53607321 -0.12787142 0.5430032 238 43
-0.54378551 -0.13160539 0.55929279 239 44
-0.53872502 -0.13064396 0.56692731 240 45
-0.53356528 -0.12964568 0.57449037 237 46
-0.53972614 -0.13288948 0.59071553 237 47
-0.5342499 -0.13179395 0.59829879 238 48
-0.52867538 -0.13066137 0.60580444 239 49
-0.53478944 -0.13397583 0.62307918 240 50
-0.54053557 -0.13719687 0.6406197 240 51
-0.53439599 -0.13589591 0.64822656 239 52
-0.53881884 -0.13867843 0.66546023 240 53
-0.53234994 -0.13727301 0.67304814 238 54
-0.53686738 -0.14016277 0.69123805 238 55
-0.53005689 -0.13864878 0.69880384 240 56
-0.53326309 -0.14109689 0.71660239 241 57
-0.53675461 -0.14370719 0.73529911 240 58
-0.52935874 -0.14201096 0.74287379 240 59
-0.53154916 -0.14417747 0.76111364 238 60
-0.52381259 -0.14236912 0.76861912 237 61
-0.52599287 -0.14460933 0.78780532 239 62
-0.52775627 -0.14673421 0.80717552 240 63
-0.52849305 -0.14849111 0.82596618 239 64
-0.52942085 -0.15038195 0.8456707 239 65
-0.52933496 -0.1519061 0.86476117 241 66
-0.52022231 -0.14966705 0.87225932 238 67
-0.5200336 -0.15123382 0.89227062 237 68
-0.51940709 -0.15267482 0.91241759 238 69
-0.51779759 -0.15375337 0.93188477 239 70
-0.5162971 -0.15494043 0.9522689 240 71
-0.51382935 -0.15576723 0.97193962 238 72
-0.51907748 -0.16009209 1.0049822 238 73
-0.51606989 -0.1608412 1.0257734 239 74
-0.51260567 -0.16145408 1.0466446 238 75
-0.50820774 -0.1617116 1.0667338 238 76
-0.51078618 -0.16527107 1.1006266 238 77
-0.50577623 -0.16542369 1.1217792 237 78
-0.50690109 -0.16856146 1.1560736 237 79
-0.50720423 -0.17146099 1.1905966 235 80
-0.50043446 -0.17108676 1.2120347 238 81
-0.49925807 -0.17354921 1.2468698 238 82
-0.49724633 -0.17576513 1.2818846 237 83
-0.49439487 -0.17773175 1.3170613 233 84
-0.49658936 -0.18247071 1.3669486 234 85
-0.49185055 -0.18387672 1.4024856 233 86
-0.4917562 -0.18794063 1.4528701 233 87
-0.48511189 -0.18877366 1.4886855 231 88
-0.48270771 -0.19214836 1.5394728 230 89
-0.47873557 -0.19497356 1.5895287 227 90
-0.47851315 -0.20028412 1.6557505 227 91
-0.47633439 -0.20493037 1.7213216 227 92
-0.47249913 -0.20907921 1.7871431 227 93
-0.46700153 -0.21272597 1.8531799 227 94
-0.46007913 -0.21601978 1.9203542 238 95
-0.43697214 -0.2093457 1.9271014 239 96
-0.41378549 -0.20261964 1.9335152 236 97
-0.38725704 -0.19356295 1.9240985 236 98
-0.36413175 -0.18679747 1.9297913 234 99
-0.34094074 -0.17998439 1.9351505 237 100
-0.31768858 -0.17312497 1.9401751 236 101
-0.29209775 -0.16431287 1.9301618 236 102
-0.26893294 -0.15742317 1.9344774 235 103
-0.24572074 -0.15049148 1.9384584 236 104
-0.22246568 -0.14351913 1.9421042 238 105
-0.19917223 -0.13650751 1.9454138 235 106
-0.17584485 -0.12945792 1.9483869 237 107
-0.15131599 -0.12071598 1.9351518 236 108
-0.12910627 -0.1152503 1.9533207 235 109
-0.10495494 -0.10656831 1.9393711 236 110
-0.081748471 -0.099445499 1.9409777 233 111
-0.058530681 -0.092291854 1.9422485 235 112
-0.035306014 -0.085108779 1.9431831 233 113
-0.012078951 -0.077897601 1.9437815 233 114
0.011146041 -0.070659764 1.9440435 235 115
0.034364499 -0.063396648 1.943969 235 116
0.057571955 -0.05610963 1.9435582 232 117
0.080763936 -0.048800103 1.9428111 236 118
0.10393599 -0.041469522 1.9417279 235 119
0.12708367 -0.034119256 1.9403086 237 120
0.15178093 -0.027549304 1.9544556 236 121
0.17507705 -0.020096563 1.9523462 238 122
0.1983351 -0.012628272 1.9498987 237 123
0.22155061 -0.0051458403 1.9471136 238 124
0.24471909 0.0023492575 1.9439918 238 125
0.2702994 0.0094239488 1.9553233 236 126
0.29355597 0.017003797 1.9514972 236 127
0.31675163 0.024592057 1.947333 237 128
0.34313315 0.031930886 1.958496 236 129
0.36640045 0.039599761 1.9536152 236 130
0.38959283 0.04727269 1.9483963 237 131
0.41633335 0.054899566 1.9573946 237 132
0.43955442 0.062640168 1.9514531 236 133
0.46696424 0.070464902 1.9605912 237 134
0.49020591 0.078271486 1.9539168 235 135
0.517739 0.086281724 1.9612459 236 136
0.54585147 0.094432823 1.9690697 238 137
0.56917185 0.10235669 1.9612546 236 138
0.59766185 0.11069747 1.968196 235 139
0.6209482 0.11867172 1.95963 235 140
0.64943492 0.12716043 1.9647381 233 141
0.67852825 0.13580269 1.9702902 235 142
0.70180744 0.14386985 1.9605531 234 143
0.73082006 0.15263671 1.9642603 233 144
0.7604534 0.16156411 1.9683801 234 145
0.78990465 0.1705505 1.9710734 233 146
0.81314623 0.17873698 1.9597229 234 147
0.84325421 0.18793234 1.96237 233 148
0.87357175 0.19723663 1.9644834 234 149
0.90362781 0.20657477 1.9651734 235 150
0.94143832 0.2172398 1.9793644 234 151
0.96472478 0.22561848 1.9658206 233 152
1.0032246 0.23660475 1.9787086 235 153
1.034606 0.24647275 1.9779757 233 154
1.0661424 0.25643554 1.9766731 232 155
1.0972948 0.2663933 1.9739543 235 156
1.1372232 0.27805489 1.9840261 233 157
1.1693219 0.28834325 1.9808794 234 158
1.2009742 0.29860657 1.9763228 233 159
1.2424625 0.3108708 1.9849788 232 160
1.2838008 0.32322314 1.9919728 235 161
1.3255372 0.33576927 1.9981132 231 162
1.3676567 0.34850529 2.0033894 232 163
1.4199839 0.3634918 2.020237 231 164
1.4629846 0.37665758 2.0236139 232 165
1.5063198 0.39000082 2.0260935 232 166
1.5403011 0.40140966 2.0163972 232 167
1.5841125 0.41503873 2.0171914 231 168
1.6381745 0.43105361 2.0280545 229 169
1.6833622 0.44521627 2.0275755 232 170
1.7383828 0.4617185 2.0361276 231 171
1.794608 0.478641 2.0441413 229 172
1.8401228 0.49322194 2.0397725 229 173
1.8858364 0.50794375 2.0344329 230 174
1.9655175 0.53078794 2.0597975 230 175
2.0236232 0.54871881 2.0626357 229 176
2.0821414 0.56688643 2.0641446 228 177
2.1403031 0.58510387 2.0636694 227 178
2.1995642 0.60372174 2.0624948 227 179
2.2705736 0.62536502 2.0692792 225 180
2.3429029 0.64750946 2.0749731 225 181
2.4149904 0.66976827 2.0783284 224 182
2.4875648 0.69231993 2.0799513 223 183
2.5732567 0.71836317 2.089066 224 184
2.6596048 0.74478376 2.0960574 222 185
2.7465682 0.77157074 2.1009073 222 186
2.8341057 0.79871267 2.1035981 221 187
2.9221771 0.8261981 2.1041126 219 188
3.0363646 0.86071569 2.1185439 220 189
3.151408 0.89573991 2.1300325 218 190
3.2538183 0.92770123 2.130621 217 191
4.1127887 1.1853293 2.2641563 109 196
4.2066951 1.2168323 2.2376685 213 197
4.2874227 1.2449062 2.2026887 212 198
4.4493623 1.2955562 2.2022605 213 199
4.654686 1.3586185 2.2159605 212 200
4.9299245 1.4416615 2.252697 211 201
5.2490525 1.5376691 2.2987075 211 202
5.3171768 1.5638062 2.2390795 218 203
5.327507 1.5737133 2.1568789 219 204
5.3512602 1.5873969 2.0798323 221 205
5.360249 1.596869 1.9978257 220 206
5.3671699 1.6057147 1.9155737 220 207
5.3729405 1.6141931 1.8334138 219 208
5.3784885 1.6225717 1.7516304 220 209
5.3819714 1.6303171 1.6696936 220 210
5.3992286 1.6420439 1.5917416 219 211
5.4154425 1.6534667 1.513521 219 212
5.4165502 1.660448 1.4318503 218 213
5.4306326 1.6712281 1.3533404 219 214
5.4577951 1.6858878 1.2773976 219 215
5.4556465 1.6918561 1.1956675 217 216
5.4665732 1.7017006 1.1165348 219 217
5.4906597 1.7154955 1.0394011 218 218
5.4852581 1.7204406 0.95775294 219 219
5.5072694 1.7336456 0.87989938 218 220
5.5292068 1.7468629 0.80160612 218 221
5.5348668 1.7551553 0.72131348 219 222
5.5394578 1.7631217 0.64091969 218 223
5.5572891 1.7751571 0.56137896 218 224
5.5597458 1.7824858 0.48062205 215 225
3.8226445 1.2512815 0.33614102 212 226
3.8228567 1.2558714 0.28046173 217 227
3.8223293 1.2602315 0.22476602 221 228
3.8353767 1.2688428 0.16896693 222 229
3.8486233 1.2775514 0.11273775 223 230
3.7715132 1.2577921 0.059293598 217 231
3.7680693 1.2611845 0.004288882 223 232
3.6744838 1.2359276 -0.044870824 217 233
3.6259997 1.2248477 -0.095017672 214 234
3.1652603 1.0892812 -0.19891211 222 237
3.0265973 1.0482159 -0.22691169 216 238
3.0639029 1.0640244 -0.27797419 219 239
3.0630519 1.0712584 -0.37028712 219 241
3.0542068 1.0721369 -0.41513032 219 242
3.0587301 1.0774267 -0.4628377 219 243
3.0486569 1.0779182 -0.50764048 220 244
3.0527837 1.0831306 -0.5559206 220 245
3.070029 1.0927579 -0.60807604 220 246
3.0717835 1.0972703 -0.65686685 218 247
3.0591271 1.0969734 -0.70190501 220 248
3.0604341 1.1013901 -0.75123942 220 249
3.0610197 1.105601 -0.80081648 221 250
3.0599766 1.1092966 -0.85031915 220 251
3.0432205 1.1117717 -0.94524717 220 253
3.0125444 1.1053663 -0.98442125 217 254
2.8861229 1.0658426 -0.98430097 218 255
2.7867169 1.0353881 -0.99187601 218 256
2.6886246 1.0051607 -0.99719274 219 257
2.5901461 0.97456867 -0.99950981 219 258
2.5059853 0.948771 -1.0057545 220 259
2.4230859 0.92322326 -1.0102222 218 260
2.3397737 0.89733553 -1.0120944 221 261
2.2830868 0.8807174 -1.0256306 220 262
2.2139885 0.85954756 -1.030889 222 263
2.1577058 0.84281421 -1.0414534 223 264
2.0892615 0.82157862 -1.0433874 222 265
2.0204239 0.8000387 -1.0430883 223 266
1.9779788 0.78792393 -1.0572664 223 267
1.910691 0.76665801 -1.054377 223 268
1.8558555 0.74979234 -1.0577441 224 269
1.8021348 0.73321015 -1.060312 223 270
1.747969 0.71633762 -1.0610172 224 271
1.7065489 0.70407623 -1.069446 224 272
1.6530339 0.6872077 -1.0676978 224 273
1.6120565 0.67491627 -1.0740532 225 274
1.5712647 0.66260684 -1.0794722 225 275
1.5306753 0.65028495 -1.0839604 224 276
1.4785866 0.63348675 -1.0775899 225 277
1.4494463 0.62534958 -1.0895394 225 278
1.4095722 0.61302686 -1.0912648 225 279
1.3699666 0.60071462 -1.0920869 226 280
1.3306453 0.58841848 -1.0920131 226 281
1.3019474 0.58019137 -1.1011542 226 282
1.2631043 0.56791353 -1.0994653 225 283
1.2245908 0.5556677 -1.0969031 226 284
1.1963236 0.5474115 -1.1040286 227 285
1.1687787 0.53939319 -1.1113039 226 286
1.1310441 0.52720654 -1.106473 225 287
1.0936964 0.51507246 -1.1008011 226 288
1.0759953 0.51087922 -1.117287 227 289
1.0385406 0.49853966 -1.1094966 228 290
1.0117409 0.49051192 -1.1137887 226 291
0.98446101 0.48222938 -1.1167918 228 292
0.95789999 0.47419131 -1.1200382 227 293
0.93089682 0.46590951 -1.1219857 228 294
0.90460896 0.45787311 -1.1242019 226 295
0.87791729 0.4496043 -1.1251109 220 296
0.22242504 0.16755441 -0.17523384 228 297
0.23856404 0.17660958 -0.22460163 220 299
0.17349784 0.14944372 -0.14054582 221 301
0.20451994 0.16448209 -0.2063013 224 302
0.19767874 0.16241053 -0.20712242 224 303
0.18903394 0.15948498 -0.20437071 227 304
0.18630816 0.15931427 -0.21275616 224 305
0.18600668 0.16032889 -0.22640452 228 306
0.18200326 0.15961862 -0.23306388 233 307
0.17335074 0.15665774 -0.22990689 238 308
0.16164047 0.15214521 -0.21941492 238 309
0.15102839 0.14810117 -0.21046436 236 310
0.14818196 0.14794013 -0.21943289 237 311
0.14259811 0.14640419 -0.22200963 234 312
0.13698243 0.1448518 -0.22450611 237 313
0.131336 0.14328323 -0.22692177 237 314
0.12565994 0.14169881 -0.22925624 221 315
0.042156488 0.096888781 0.0010446757 220 316
0.038347952 0.09547361 0.0038114935 220 317
0.10175682 0.1385645 -0.28263634 229 321
0.097244255 0.13793376 -0.29223341 235 322
0.094291463 0.13841394 -0.30950356 230 323
0.087534212 0.13644958 -0.31132114 229 324
0.080755733 0.13447067 -0.31304115 223 325
0.0048121084 0.082202062 0.038148925 235 327
0.0027122442 0.081581324 0.03771086 236 328
0.00060746446 0.080956586 0.03730312 237 329
-0.001501821 0.080327973 0.036925763 231 330
-0.0036152136 0.079695597 0.036578879 220 331
0.031122489 0.11842778 -0.30652148 221 332
0.019966194 0.11115482 -0.25992107 220 333
0.014219144 0.10973987 -0.2646147 225 334
0.008626001 0.10868938 -0.27320224 230 335
0.0032429062 0.10834482 -0.28967088 234 336
-0.0027291086 0.10748821 -0.30210233 234 337
-0.0091304071 0.10616787 -0.31047755 235 338
-0.015965849 0.10340983 -0.30282679 237 339
-0.022582911 0.10200719 -0.31101894 234 340
-0.029207869 0.099298663 -0.30316797 237 341
-0.036035605 0.097814783 -0.3111707 229 342
-0.029343558 0.072202578 0.029827014 221 343
-0.030700006 0.070478767 0.045826346 228 344
-0.030515445 0.067859754 0.078773007 223 345
-0.030246247 0.066077292 0.10174835 222 346
-0.031025711 0.065422818 0.10680537 224 347
-0.031145625 0.064570419 0.11683591 222 348
-0.032421343 0.064324617 0.11495358 221 349
-0.033879288 0.064100616 0.11210172 222 350
-0.03584766 0.063956037 0.1063087 226 351
-0.035762895 0.063327439 0.11437204 235 352
-0.037515536 0.06308607 0.11060022 231 353
-0.24292935 0.034753691 -0.33092558 nan 370
-0.25012589 0.030814692 -0.31012785 213 372
-0.26348624 0.027557474 -0.32143521 217 373
-0.27696151 0.022791192 -0.31461024 226 375
-0.29047751 0.019358154 -0.3243522 225 376
-0.29726604 0.016931407 -0.32059872 225 377
-0.27425349 0.019409668 -0.26256981 224 378
-0.2802282 0.017255187 -0.25903666 218 379
-0.28615344 0.01510907 -0.25541607 219 380
-0.29202798 0.01297174 -0.25170881 218 381
-0.15484065 0.034074903 0.01632084 233 388
-0.15476291 0.033690341 0.021353364 231 389
-0.36134425 -0.0097412616 -0.2388126 219 390
-0.35766491 -0.0099239573 -0.22240883 228 391
-0.35298896 -0.0098425597 -0.2054216 236 392
-0.3780092 -0.016140111 -0.22416395 234 393
-0.37368309 -0.016107857 -0.20791778 235 394
-0.37888885 -0.018140092 -0.20293102 235 395
-0.38402611 -0.020157136 -0.19786766 235 396
-0.38909391 -0.022158623 -0.19272867 237 397
-0.39409119 -0.024144135 -0.18751502 235 398
-0.40946665 -0.028527394 -0.19271478 236 399
-0.419368 -0.032523215 -0.18162358 235 401
-0.43577582 -0.037241429 -0.18667206 238 402
-0.44067255 -0.039250575 -0.18078065 234 403
-0.45659196 -0.043920882 -0.18453991 235 404
-0.46145135 -0.045942895 -0.17834643 236 405
-0.4662264 -0.047944397 -0.17208102 237 406
-0.45944634 -0.047090858 -0.15650299 238 407
-0.46393207 -0.048999988 -0.15026143 235 408
-0.4558495 -0.047758549 -0.13444701 234 409
-0.4600437 -0.049572751 -0.12825227 233 410
-0.46415383 -0.051365741 -0.12199533 235 411
-0.46817902 -0.053137146 -0.1156773 235 412
-0.44702327 -0.04842519 -0.092285424 233 413
-0.46372461 -0.053440668 -0.094804376 234 414
-0.45421669 -0.051665381 -0.08007744 234 415
-0.45768929 -0.053253166 -0.073893368 233 416
-0.41926086 -0.043787286 -0.042565554 225 417
-0.41972211 -0.044512853 -0.035409436 219 418
-0.41837218 -0.044747658 -0.02732569 223 419
-0.41261154 -0.043786637 -0.016992658 221 420
-0.41354281 -0.044606023 -0.010489717 218 421
-0.41350964 -0.045159027 -0.0035554916 220 422
-0.41075274 -0.044962198 0.0046280473 219 423
-0.42013511 -0.048077255 0.0068749189 221 424
-0.4189384 -0.048298284 0.014199436 225 425
-0.42738387 -0.05117853 0.017160207 225 426
-0.42868418 -0.052088365 0.023356646 220 427
-0.42900035 -0.052720882 0.029925674 216 428
-0.42741799 -0.052815624 0.03717941 216 429
-0.42210135 -0.051847473 0.045716852 216 430
-0.40845522 -0.048499815 0.057010591 222 431
-0.40738595 -0.048693128 0.063503623 215 432
-0.40255076 -0.047802508 0.071142897 212 433
-0.40403658 -0.048711449 0.076614559 216 434
-0.40544906 -0.04959932 0.082109064 216 435
-0.40771532 -0.050734684 0.08736524 215 436
-0.41084436 -0.052123524 0.092422158 217 437
-0.41577736 -0.054044262 0.097085848 217 438
-0.42440119 -0.057057433 0.10099664 221 439
-0.42735812 -0.058418944 0.10637936 238 440
-0.43212876 -0.060321815 0.11144774 237 441
-0.43966779 -0.063056417 0.11610321 236 442
-0.44054028 -0.063818216 0.12212337 234 443
-0.44133237 -0.06455604 0.1281576 237 444
-0.44204396 -0.065269746 0.13420475 236 445
-0.44267491 -0.065959193 0.14026366 236 446
-0.44227397 -0.066335998 0.14644396 237 447
-0.44083789 -0.066395648 0.15270321 235 448
-0.43741137 -0.065842919 0.15908217 235 449
-0.43103755 -0.064377539 0.16556631 233 450
-0.50759763 -0.088424884 0.16701844 228 451
-0.52303779 -0.093766399 0.17336497 235 452
0.04777408 -0.33853215 1.9198092 1761 0
0.043988246 -0.30806684 1.9198632 1912 1
0.040182114 -0.27867326 1.926299 1961 2
0.036413223 -0.24851981 1.9272594 1877 3
0.032640517 -0.21861674 1.9296726 1900 4
0.028839145 -0.18895908 1.9345455 1971 5
0.025096148 -0.15889858 1.9349093 1834 6
0.021214606 -0.12935914 1.9437281 1836 7
0.017505918 -0.099177659 1.9420396 1891 8
0.013647899 -0.069238797 1.9478161 1830 9
0.0097560063 -0.039118782 1.9540654 1877 10
0.0059285425 -0.0088341087 1.9567842 1871 11
0.0019619279 0.021707311 1.9639642 1842 12
-0.0018429905 0.052211747 1.9646095 1872 13
-0.0058661364 0.083226129 1.9716972 1805 14
-0.0099100098 0.11451559 1.9782255 1688 15
-0.013936721 0.1459689 1.9831933 1738 16
-0.017784283 0.17705052 1.9826299 1706 17
-0.021989189 0.20939158 1.9904227 1649 18
-0.026093408 0.2416117 1.9946525 1591 19
-0.030211166 0.27405566 1.9982886 1654 20
-0.034340978 0.30671269 2.0013251 1676 21
-0.038627833 0.34018362 2.0066888 1611 22
-0.042935759 0.37394696 2.0114174 1659 23
-0.046893202 0.40632749 2.0087132 1640 24
-0.051334031 0.44103181 2.0141082 1624 25
-0.055287763 0.47361964 2.0101786 1673 26
-0.060285725 0.51139891 2.0228581 1496 27
-0.064974859 0.54794854 2.0290463 1420 28
-0.068880469 0.5807116 2.0222101 1502 29
-0.075020641 0.62521589 2.0476503 1324 30
-0.079610884 0.66195691 2.0487356 1380 31
-0.084486052 0.70041668 2.0527918 1321 32
