# .PCD v0.7 - Point Cloud Data file format
VERSION 0.7
FIELDS x y z intensity index
SIZE 4 4 4 4 4
TYPE F F F F F
COUNT 1 1 1 1 1
WIDTH 1159
HEIGHT 1
VIEWPOINT 0 0 0 1 0 0 0
POINTS 1159
DATA ascii
1.2775069 -1.5602213 1.793185 731 318
1.2360504 -1.5133427 1.7986569 783 319
1.1958873 -1.467905 1.8037422 837 320
1.1569941 -1.4238907 1.8085363 866 321
1.1220417 -1.3847752 1.8171957 912 322
1.0864391 -1.344642 1.8231418 929 323
1.0489608 -1.3018702 1.8242044 988 324
1.0156885 -1.2644099 1.8302178 993 325
0.98225677 -1.2265681 1.8342576 1026 326
0.95114458 -1.1916256 1.8407316 1071 327
0.91826773 -1.1541719 1.8423264 1087 328
0.88920265 -1.1216464 1.8495421 1129 329
0.85351157 -1.0800347 1.8418348 1230 330
0.82277197 -1.0448952 1.8421288 1202 331
0.7977342 -1.0173675 1.8532126 1146 332
0.76925105 -0.98500603 1.8554552 1212 333
0.73932391 -0.95048136 1.8526289 1370 334
0.71568817 -0.92454255 1.8635635 1400 335
0.68887895 -0.89405888 1.8654356 1326 336
0.66260934 -0.86418647 1.8672464 1294 337
0.64702225 -0.84945875 1.8980341 200 338
0.61305696 -0.80829018 1.8751438 190 339
0.5876838 -0.77927595 1.8752956 256 340
0.57459021 -0.76821637 1.9141667 114 341
0.55179304 -0.74291444 1.9219031 100 342
0.52533907 -0.71200782 1.9155521 53 343
0.50326222 -0.68756682 1.9236529 148 344
0.46770424 -0.6421333 1.8765464 309 345
0.44267654 -0.61257571 1.8673923 630 346
0.42942947 -0.60162836 1.9091163 190 347
0.40825787 -0.57813448 1.9163389 348 348
0.38509712 -0.55126733 1.9126823 1281 349
0.36202052 -0.52432972 1.9073722 1749 350
0.34145278 -0.5015288 1.9146159 1731 351
0.31953645 -0.4762643 1.9127321 1694 352
0.29849115 -0.45241463 1.9149954 1689 353
0.27677917 -0.42716038 1.9108956 1743 354
0.25631779 -0.40415061 1.9148622 1790 355
0.23578376 -0.3809039 1.9173043 1816 356
0.21521768 -0.35746574 1.9182117 1843 357
0.19505829 -0.33483076 1.9224689 1833 358
0.1748341 -0.31196868 1.9252095 1831 359
-0.83602256 -1.3110451 0.092497118 238 0
-0.83612227 -1.3124026 0.11392477 235 1
-0.83607382 -1.3135021 0.13536739 237 2
-0.8358773 -1.3143435 0.15682085 236 3
-0.83553272 -1.3149265 0.17828101 235 4
-0.84249008 -1.3282702 0.19982183 237 5
-0.84184331 -1.328337 0.22149098 239 6
-0.84104741 -1.3281429 0.24315441 240 7
-0.84010237 -1.3276879 0.26480791 239 8
-0.83900857 -1.3269719 0.28644735 237 9
-0.84566426 -1.3398589 0.30925995 239 10
-0.84425902 -1.338609 0.33107987 236 11
-0.85008061 -1.3500669 0.35440424 236 12
-0.84836012 -1.3482746 0.37637308 235 13
-0.84648925 -1.3462174 0.39830634 239 14
-0.85228008 -1.3576695 0.42249367 239 15
-0.85008752 -1.3550578 0.44456258 239 16
-0.84774423 -1.3521801 0.46658283 238 17
-0.85299253 -1.3627248 0.49150044 239 18
-0.85032272 -1.3592827 0.51362842 237 19
-0.85470951 -1.36834 0.53886807 240 20
-0.85171109 -1.364328 0.56107092 238 21
-0.85618961 -1.3735846 0.58701998 239 22
-0.85285747 -1.3689935 0.60929155 238 23
-0.85646355 -1.3767384 0.63546401 237 24
-0.85279649 -1.3715641 0.65777069 237 25
-0.85646862 -1.379464 0.68466043 238 26
-0.85944849 -1.386156 0.71157438 239 27
-0.85525328 -1.380066 0.7340076 237 28
-0.85827869 -1.3868774 0.76164156 239 29
-0.86106867 -1.3932943 0.7895844 239 30
-0.86316431 -1.3984952 0.81747103 237 31
-0.86547601 -1.4041089 0.84599632 238 32
-0.8550663 -1.3884212 0.89122176 237 34
-0.85628754 -1.392131 0.91976684 238 35
-0.85770363 -1.3962176 0.948973 237 36
-0.85842776 -1.3990856 0.97800159 236 37
-0.85933459 -1.40231 1.0077002 237 38
-0.85998106 -1.4050926 1.0376387 237 39
-0.85993725 -1.4066561 1.0673375 237 40
-0.86640877 -1.4200394 1.1049664 233 41
-0.86620605 -1.4213848 1.1357424 234 42
-0.86531502 -1.4215111 1.1662149 235 43
-0.86456889 -1.4219285 1.1973773 232 44
-0.86354572 -1.4218721 1.2287256 233 45
-0.86830729 -1.4323808 1.2683907 232 46
-0.87266558 -1.4422132 1.3085704 234 47
-0.87027717 -1.4397874 1.3401984 234 48
-0.86800081 -1.437596 1.3725253 232 49
-0.87124825 -1.4455491 1.4138135 231 50
-0.87407285 -1.4527891 1.4555616 232 51
-0.87078732 -1.4488736 1.4885955 230 52
-0.87281841 -1.4547665 1.5310537 230 53
-0.87441278 -1.4599193 1.5739276 232 54
-0.87556547 -1.4643227 1.6172012 230 55
-0.89320856 -1.4992512 1.6915759 229 56
-0.88790596 -1.4918963 1.7261318 235 57
-0.87667972 -1.4735993 1.7499357 234 58
-0.8545785 -1.4351158 1.7522221 231 59
-0.82629508 -1.3875952 1.7864245 231 61
-0.80445039 -1.3494326 1.7864044 229 62
-0.78278321 -1.31153 1.785476 230 63
-0.76610428 -1.2828993 1.7946476 231 64
-0.74473649 -1.2454287 1.7920692 231 65
-0.72821176 -1.2169925 1.7998855 230 66
-0.71203655 -1.1891757 1.8078612 232 67
-0.69112366 -1.1523702 1.8029386 231 68
-0.67482793 -1.1242284 1.8088367 232 69
-0.65888113 -1.0967067 1.8149328 234 70
-0.64270729 -1.0687132 1.8196647 231 71
-0.62660444 -1.0408117 1.8238147 233 72
-0.61084771 -1.0135276 1.8281994 234 73
-0.59489542 -0.98582596 1.8312063 233 74
-0.57928705 -0.95873934 1.8344725 232 75
-0.56350398 -0.93127126 1.836354 233 76
-0.54806215 -0.90441465 1.8385185 234 77
-0.53246659 -0.87721288 1.8392926 231 78
-0.51697451 -0.85016143 1.8395164 234 79
-0.50524706 -0.83042073 1.8530328 234 80
-0.49009919 -0.80396497 1.8531542 233 81
-0.47483873 -0.77723503 1.8518738 233 82
-0.45990837 -0.75110137 1.8509473 235 83
-0.44814539 -0.73121101 1.8628777 235 84
-0.43315071 -0.70486414 1.8601264 235 85
-0.42134464 -0.68485761 1.8713154 235 86
-0.4065159 -0.65874916 1.8676314 234 87
-0.39467829 -0.6386466 1.8780811 235 88
-0.38020092 -0.61315203 1.8743985 234 89
-0.36569208 -0.58752465 1.8693044 236 90
-0.35387397 -0.56739324 1.8786157 235 91
-0.33971745 -0.54238355 1.8735636 236 92
-0.32788962 -0.52219534 1.8821526 236 93
-0.31601146 -0.50190121 1.8904163 238 94
-0.30196723 -0.47696599 1.8831574 235 95
-0.29010189 -0.45665428 1.8906982 236 96
-0.27819341 -0.43624926 1.8979123 233 97
-0.26444712 -0.41176561 1.8894078 236 98
-0.25256708 -0.39137068 1.8959051 236 99
-0.24065121 -0.370895 1.9020746 237 100
-0.22732082 -0.34712461 1.8933294 236 101
-0.2167211 -0.32971728 1.913425 236 102
-0.20353438 -0.30615634 1.9039277 234 103
-0.19160037 -0.28557369 1.9087332 236 104
-0.17964225 -0.26493064 1.9132086 236 105
-0.16766231 -0.24423122 1.9173527 235 106
-0.15566283 -0.22347936 1.9211648 236 107
-0.14364618 -0.20267907 1.9246441 236 108
-0.1316146 -0.18183431 1.9277902 237 109
-0.11957045 -0.16094914 1.930602 235 110
-0.10751604 -0.14002758 1.9330795 238 111
-0.095453672 -0.11907362 1.935222 238 112
-0.083385676 -0.098091327 1.937029 235 113
-0.07131438 -0.077084705 1.9385004 234 114
-0.059242103 -0.056057803 1.9396355 237 115
-0.047171168 -0.035014674 1.9404345 236 116
-0.035103887 -0.013959378 1.940897 237 117
-0.022672616 0.0069223717 1.9560174 236 118
-0.010516319 0.028170459 1.9558051 235 119
0.0016292706 0.049418576 1.9552534 238 120
0.013761811 0.07066264 1.9543624 237 121
0.025878958 0.091898546 1.9531324 235 122
0.037978403 0.11312221 1.9515634 236 123
0.050057791 0.13432957 1.9496559 237 124
0.063278064 0.15666971 1.9633262 236 125
0.075419486 0.17802405 1.9607192 238 126
0.088914812 0.20088622 1.9736382 235 127
0.10110798 0.22237012 1.9703217 236 128
0.11326896 0.2438167 1.966663 235 129
0.12699476 0.26719946 1.9774456 237 130
0.15325713 0.31271437 1.9840368 236 132
0.1673743 0.33684835 1.9935962 235 133
0.17964564 0.35858911 1.9881015 239 134
0.19411017 0.38332197 1.9978058 236 135
0.20639031 0.40511912 1.9915673 237 136
0.2209162 0.43005958 1.9994524 238 137
0.23574348 0.45549878 2.0078416 236 138
0.25072175 0.48122773 2.015759 236 139
0.2630828 0.50325298 2.0079508 236 140
0.27806878 0.52909738 2.0140228 236 141
0.29336721 0.55546206 2.0205569 236 142
0.30860931 0.58180755 2.0256543 236 143
0.32099468 0.60396421 2.0162363 235 144
0.33658034 0.6309095 2.0213423 237 145
0.35545367 0.66286081 2.0398014 236 146
0.36790121 0.68519771 2.0290837 235 147
0.38383877 0.71284395 2.0326309 235 148
0.39965749 0.74036211 2.0347357 235 149
0.41580582 0.76843542 2.037214 234 150
0.43181419 0.79634392 2.0382504 233 151
0.44815516 0.8248142 2.0396361 235 152
0.46839291 0.85939085 2.0537148 235 153
0.48500282 0.88839835 2.0538809 234 154
0.50142968 0.91716558 2.0526059 233 155
0.52226138 0.95289618 2.0645776 234 156
0.53918421 0.98255128 2.0629148 234 157
0.56041354 1.0190589 2.0733948 233 158
0.58187431 1.0560161 2.0830584 233 159
0.59915066 1.0863994 2.0793872 234 160
0.61617762 1.1164266 2.0742822 232 161
0.63811702 1.1543454 2.0816715 234 162
0.66522402 1.2006233 2.1011655 233 163
0.68764603 1.2394878 2.1066976 233 164
0.71025354 1.278725 2.1113482 234 165
0.73336458 1.3188478 2.1158919 233 166
0.76901174 1.3821713 2.09688 233 168
0.79212725 1.4224813 2.0981712 233 169
0.81538856 1.4630973 2.0985363 230 170
0.85530543 1.5309401 2.13276 230 171
0.8847611 1.5818596 2.1424987 230 172
0.91412526 1.6327289 2.1502514 229 173
0.94410306 1.6847005 2.1574564 228 174
0.97988206 1.7462965 2.1738963 228 175
1.010406 1.7993741 2.1783514 230 176
1.0468409 1.8622861 2.1917129 227 177
1.0778561 1.9163769 2.193356 226 178
1.1148872 1.9805043 2.2035704 229 179
1.1585063 2.0556576 2.2225223 225 180
1.2025505 2.1316662 2.2394423 224 181
1.2345732 2.1878648 2.2347898 223 182
1.2853552 2.2753408 2.2571959 223 183
1.337031 2.3644781 2.2777872 223 184
1.3821584 2.442873 2.2857628 223 185
1.4280163 2.5226283 2.2922077 231 186
1.4283627 2.5264535 2.2338972 233 187
1.4349759 2.5407116 2.1849041 231 188
1.4407647 2.5535626 2.1353197 231 189
1.4461507 2.5657101 2.085731 230 190
1.4446195 2.5662105 2.0282311 230 191
1.4495931 2.5775974 1.9793674 231 192
1.4471213 2.5764229 1.9224468 229 193
1.4508221 2.5856006 1.8733199 230 194
1.4335625 2.5593786 1.8021679 226 195
1.4363459 2.5669153 1.7537402 228 196
1.445995 2.5860381 1.7126945 231 197
1.4553531 2.6046691 1.6713563 230 198
1.4502035 2.5987091 1.6163783 232 199
1.4588929 2.6161814 1.5748678 232 200
1.4598695 2.6205528 1.5266014 232 201
1.4609389 2.6250565 1.4788766 230 202
1.4686704 2.6408761 1.4369885 231 203
1.4685737 2.6433582 1.3889846 233 204
1.4756781 2.658097 1.3468322 232 205
1.4753599 2.6601639 1.2993375 232 206
1.4742072 2.6607811 1.2516925 231 207
1.4803588 2.6738684 1.2093049 230 208
1.4790012 2.6740985 1.1621923 231 209
1.4845309 2.6861095 1.1196201 232 210
1.4820162 2.6843207 1.0724628 232 211
1.4869237 2.6952524 1.0297554 229 212
1.4837389 2.6922753 0.98290843 230 213
1.4880261 2.7021291 0.9401021 231 214
1.4846691 2.6988199 0.89382637 228 215
1.4883406 2.7076018 0.85094345 230 216
1.4917127 2.715868 0.80793381 229 217
1.4947852 2.7236173 0.76480556 230 218
1.4975574 2.7308476 0.72156703 230 219
1.5000287 2.7375581 0.67822659 230 220
1.5021987 2.7437477 0.63479257 230 221
1.5040671 2.7494149 0.59127331 230 222
1.5056334 2.7545586 0.54767716 228 223
1.5068972 2.7591777 0.50401253 230 224
1.4999061 2.7494543 0.45893076 227 225
1.5005611 2.7530036 0.41537553 223 226
1.5009147 2.7560291 0.37177724 224 227
1.5243427 2.7992535 0.33017978 227 228
1.5240897 2.8012586 0.28586939 229 229
1.5235307 2.8027301 0.24154091 227 230
1.522666 2.8036678 0.19720282 229 231
1.529439 2.8179591 0.15266943 228 232
1.5279557 2.8178282 0.10811593 229 233
1.5261657 2.8171606 0.063578561 226 234
0.9946335 1.8928572 -0.013438657 229 238
0.99240929 1.8906133 -0.043161184 230 239
0.98213977 1.8742034 -0.070874542 229 240
0.97219521 1.8583415 -0.098233581 227 241
0.96940237 1.8550719 -0.12737811 228 242
0.96641022 1.851451 -0.15646124 228 243
0.96321946 1.8474792 -0.18547732 226 244
0.96707672 1.8559743 -0.21728885 225 245
0.9673292 1.8598143 -0.27883673 227 247
0.96329242 1.8543698 -0.30794799 223 248
0.52944547 1.0858333 -0.1154466 231 249
0.51929116 1.0687934 -0.12810493 235 250
0.51663637 1.0650681 -0.14462677 234 251
0.50636053 1.0477734 -0.15651733 223 252
0.43442363 0.92412579 -0.19313321 219 257
0.43138421 0.91959971 -0.20732352 219 258
0.42824906 0.91490215 -0.22143704 203 259
0.37317103 0.81780678 -0.20555377 219 261
0.36301965 0.80039573 -0.21139973 218 262
0.35332566 0.78378081 -0.21719223 219 263
0.31021357 0.7084285 -0.21650624 222 266
0.29392636 0.67975181 -0.21245208 221 267
0.2841152 0.66274774 -0.21490392 223 268
0.28103971 0.65792763 -0.22491178 223 269
0.27127206 0.64095885 -0.22662726 216 270
0.26197195 0.6248104 -0.22840667 212 271
0.25231946 0.60799259 -0.22921443 213 272
0.24313532 0.5919981 -0.2301155 215 273
0.23361515 0.57536215 -0.23002768 214 274
0.22456361 0.55955154 -0.23006269 217 275
0.22070886 0.55468905 -0.26395282 223 278
0.21169432 0.53888726 -0.26297787 225 279
0.20238946 0.52252084 -0.26096106 225 280
0.19905795 0.517129 -0.26871425 225 281
0.18987183 0.50093192 -0.26600629 226 282
0.18651499 0.49547663 -0.27341306 226 283
0.17781241 0.48012355 -0.27069318 230 284
0.16886038 0.46427515 -0.26689604 236 285
0.14972201 0.42946675 -0.24200073 227 286
0.14114928 0.41421902 -0.237082 223 287
0.13269851 0.39916232 -0.2317639 138 288
-0.044812832 0.068677068 0.13734123 64 294
-0.04550036 0.06746792 0.13748752 48 295
-0.046471007 0.065719388 0.13844469 61 296
-0.041854806 0.081349589 0.0014369488 210 323
-0.042609334 0.080340035 -0.0041506439 210 324
-0.044416077 0.077013381 -0.0010655075 211 325
-0.046582028 0.072841875 0.0059554875 213 326
-0.048071019 0.070169546 0.0072437227 215 327
-0.049713768 0.067118362 0.010528579 217 328
-0.051551014 0.063562237 0.016804203 221 329
-0.052770369 0.061460167 0.016295806 223 330
-0.053924073 0.059525181 0.014838666 224 331
-0.056279365 0.055566728 0.012011796 224 333
-0.057337493 0.053957704 0.0076754391 225 334
-0.058942027 0.050736222 0.015252843 227 335
-0.060166478 0.04861391 0.014949828 227 336
-0.061392095 0.046487689 0.014680803 228 337
-0.062618636 0.044357967 0.014445856 228 338
-0.063859127 0.042146936 0.015241832 231 339
-0.065086283 0.039957218 0.016073838 236 340
-0.066298798 0.037680842 0.018938348 237 341
-0.067455046 0.035390358 0.023838148 238 342
-0.068470448 0.033067927 0.033772007 237 343
-0.069623366 0.031220917 0.030746609 240 344
-0.070901312 0.029319409 0.024752989 238 345
-0.072470963 0.027237576 0.012796685 239 346
-0.074931785 0.022928687 0.012977391 235 348
-0.07615979 0.020775586 0.013119325 230 349
-0.077385888 0.018623933 0.013295636 230 350
-0.078609832 0.016474141 0.013506219 232 351
-0.079831392 0.014326626 0.013751119 232 352
-0.081133246 0.012091743 0.013037756 228 353
-0.082445845 0.0098360293 0.012362078 228 354
-0.083961867 0.007332027 0.0097469985 227 355
-0.08582484 0.0043827891 0.0042191744 223 356
-0.086665109 0.002673097 0.0085974634 226 357
-0.14074229 -0.074055657 -0.31266463 216 362
-0.14417002 -0.080142774 -0.31087112 219 363
-0.14758277 -0.086209036 -0.30898088 226 364
-0.16582024 -0.11599856 -0.34647095 226 367
-0.16946247 -0.12249795 -0.3439967 232 368
-0.17308483 -0.12896833 -0.34141952 231 369
-0.17668664 -0.13540849 -0.33873969 227 370
-0.1772444 -0.13730866 -0.32197446 224 371
-0.18382579 -0.148193 -0.33307451 223 372
-0.19078664 -0.15970352 -0.34484005 227 373
-0.19770251 -0.17120123 -0.35541439 229 374
-0.19798593 -0.17263624 -0.33839369 226 375
-0.19782716 -0.17334497 -0.32053745 221 376
-0.20126589 -0.17953897 -0.3171553 219 377
-0.21617714 -0.20346287 -0.3556397 222 378
-0.2198444 -0.21008331 -0.35176533 226 379
-0.22758719 -0.2230517 -0.36186725 225 380
-0.22289036 -0.21662131 -0.32972962 214 381
-0.22637352 -0.22293133 -0.3256532 214 382
-0.22571483 -0.22272328 -0.30858374 216 383
-0.22457297 -0.22171175 -0.29077801 217 384
-0.22778574 -0.22755322 -0.28663248 216 385
-0.20504457 -0.19279024 -0.19673139 221 387
-0.22786783 -0.22982115 -0.24816081 218 388
-0.23078367 -0.23515028 -0.24389914 216 389
-0.23366782 -0.24042872 -0.23955369 215 390
-0.23651977 -0.24565545 -0.23512524 215 391
-0.2862882 -0.32807216 -0.31708211 214 394
-0.28455013 -0.32599118 -0.29978201 219 395
-0.28777948 -0.33195376 -0.29396781 216 396
-0.32342362 -0.39072254 -0.35733998 221 397
-0.3379916 -0.41529173 -0.37327796 222 398
-0.34168804 -0.4221504 -0.36601406 226 399
-0.34533149 -0.42892238 -0.35864294 225 400
-0.3489213 -0.43560642 -0.35116577 224 401
-0.35842019 -0.45200336 -0.35473573 222 402
-0.3736679 -0.47789738 -0.36818683 217 403
-0.38340938 -0.49477348 -0.37075347 217 404
-0.39284533 -0.51117665 -0.37221897 217 405
-0.39649278 -0.51803428 -0.36342359 220 406
-0.40639096 -0.53524697 -0.36485153 214 407
-0.42234015 -0.56252903 -0.37535846 216 408
-0.43243307 -0.58014029 -0.3757292 221 409
-0.43607461 -0.58704847 -0.36583102 219 410
-0.50963473 -0.71521807 -0.37191087 224 416
-0.50670063 -0.71120036 -0.35184711 219 417
-0.51666164 -0.72883099 -0.34769487 214 418
-0.52004552 -0.73541969 -0.33543015 213 419
-0.52334201 -0.7418614 -0.32306391 213 420
-0.5336808 -0.76018131 -0.31837857 213 421
-0.52155489 -0.74229378 -0.25869903 214 424
-0.52432013 -0.74781209 -0.24624711 216 425
-0.52699721 -0.7531811 -0.23371094 215 426
-0.5221864 -0.74583769 -0.21450171 216 427
-0.52464586 -0.75082421 -0.20200706 217 428
-0.5344947 -0.76838225 -0.19562116 216 429
-0.35411346 -0.46200389 -0.037399575 228 430
-0.34792686 -0.45195159 -0.023721844 219 431
-0.79952592 -1.2230482 -0.34643871 216 432
-0.7950688 -1.216671 -0.3209219 219 433
-0.80570418 -1.2360733 -0.30601969 214 434
-0.36145598 -0.47748354 0.01063627 215 436
-0.36248225 -0.47972569 0.018773198 229 437
-0.6199643 -0.92213249 -0.11522257 218 438
-0.61436754 -0.9134106 -0.096112251 228 439
-0.60813427 -0.90357113 -0.077106744 215 440
-0.73918635 -1.1299952 -0.12267736 229 441
-0.7408464 -1.1339223 -0.10407448 225 442
-0.39053243 -0.53093672 0.05877322 220 443
-0.38332528 -0.51900786 0.070753455 230 444
-0.37602609 -0.5068953 0.082321182 229 445
-0.3844527 -0.52194846 0.088337876 232 446
-0.41560858 -0.5763607 0.088060707 236 447
-0.41605872 -0.57768232 0.097752921 236 448
-0.42437893 -0.59264797 0.10555452 239 449
-0.42470151 -0.59376079 0.11550145 236 450
-0.42495513 -0.59475404 0.12546302 238 451
-0.42513978 -0.59562737 0.13543734 238 452
0.18799029 -0.24508458 1.9306411 1777 0
0.16441631 -0.22634806 1.9349573 1866 1
0.14041252 -0.20655239 1.9308196 1888 2
0.11695921 -0.18799093 1.9360555 1867 3
0.093365327 -0.16902113 1.9377893 1886 4
0.069804445 -0.15020108 1.940986 1873 5
0.046216458 -0.1312311 1.9426612 1864 6
0.022704273 -0.11194269 1.9398193 1930 7
-0.00097668171 -0.093228087 1.9454271 1858 8
-0.024867356 -0.074467152 1.9525042 1966 9
-0.048628613 -0.055346891 1.9540615 1902 10
-0.072630271 -0.036238641 1.9580777 1791 11
-0.097158611 -0.017077165 1.9665354 1775 12
-0.12081589 0.0023456644 1.9634931 1807 13
-0.14507072 0.021795956 1.965881 1831 14
-0.16952552 0.041371197 1.9687098 1751 15
-0.1940729 0.061068401 1.9709805 1785 16
-0.21870486 0.080881432 1.9726887 1796 17
-0.24357979 0.10085618 1.9748144 1756 18
-0.26801068 0.12076734 1.9734184 1676 19
-0.29399174 0.14132345 1.9792883 1657 20
-0.31874067 0.16150731 1.9777132 1697 21
-0.34504002 0.1824241 1.98236 1686 22
-0.3689782 0.20237575 1.9757359 1731 23
-0.38399523 0.21805894 1.9339195 967 24
-0.38534451 0.2266317 1.8449762 823 25
-0.38603073 0.23415932 1.7620734 872 26
-0.3868627 0.24113943 1.6870854 901 27
-0.38726896 0.24735205 1.6171227 1131 28
-0.38868332 0.25364619 1.5559026 1158 29
-0.37252647 0.2495902 1.4484729 1372 30
-0.37360412 0.25475881 1.3973935 1388 31
-0.37687576 0.26091358 1.3557245 1373 32
-0.3752079 0.26389509 1.3042014 1656 33
-0.37449211 0.2671642 1.2584313 1681 34
-0.37457258 0.27067775 1.2174252 1872 35
-0.37642205 0.27508169 1.1828742 1865 36
-0.37584144 0.27779821 1.1449773 1961 37
-0.37686241 0.28135139 1.1125615 2080 38
-0.37670469 0.28400639 1.0794704 2244 39
-0.37885362 0.28800926 1.0525739 2279 40
-0.37994951 0.29121941 1.0249584 2389 41
-0.37304705 0.28905764 0.98416412 2264 42
-0.37509584 0.29265147 0.96116745 2327 43
-0.37664682 0.29583305 0.93827629 2503 44
-0.37671775 0.29794058 0.91389811 2604 45
-0.37625825 0.2996034 0.88969791 2793 46
-0.37887251 0.3032794 0.87117207 2904 47
-0.37796527 0.30448684 0.84807307 2714 48
-0.37816739 0.30638409 0.82745957 2825 49
-0.37957311 0.30905476 0.80924463 3089 50
-0.377846 0.30948955 0.7874347 3141 51
-0.38016659 0.31269661 0.77165532 2850 52
-0.37989694 0.3140415 0.75306493 2866 53
-0.37518609 0.31218842 0.72971475 3020 54
-0.37588662 0.31411174 0.71359295 3297 55
-0.37747735 0.31663418 0.69892281 3601 56
-0.37758249 0.31805992 0.68298209 3774 57
-0.37923455 0.32056504 0.66910881 3410 58
-0.37876558 0.32150865 0.65336984 3923 59
-0.37863487 0.32266262 0.63838786 3891 60
-0.37822974 0.32358468 0.62352049 4076 61
-0.37820154 0.32475165 0.60937166 4063 62
-0.37923139 0.32666939 0.59648895 4240 63
-0.37871653 0.32742667 0.58252323 4146 64
-0.37996376 0.32946229 0.57033348 4340 65
-0.37695241 0.32831639 0.5549469 4456 66
-0.37502742 0.32794425 0.54082614 4285 67
-0.37561125 0.32941952 0.52890801 4468 68
-0.376001 0.33073309 0.51704299 4467 69
-0.37619877 0.33188623 0.50523609 4721 70
-0.37549943 0.33234614 0.49302894 4550 71
-0.37602657 0.33371606 0.48181701 4568 72
-0.3756609 0.33439553 0.47021478 5008 73
-0.37438881 0.33436903 0.45827407 5102 74
-0.37438208 0.3352907 0.44724941 5192 75
-0.37567204 0.33719355 0.43704978 5083 76
-0.37460101 0.33727685 0.42574 4864 77
-0.37261426 0.33663985 0.41417444 5303 78
-0.37193912 0.33699769 0.40341449 5610 79
-0.37260133 0.33837917 0.39336622 5518 80
-0.37311888 0.33964258 0.38332847 5356 81
-0.37273622 0.34019962 0.37301832 5226 82
-0.37220424 0.34063134 0.36275902 5342 83
-0.37228656 0.34153497 0.35280699 5286 84
-0.37375718 0.34352165 0.34335098 5757 85
-0.3743304 0.34480304 0.33363581 5674 86
-0.37399912 0.34536889 0.32371539 5601 87
-0.37430036 0.34642881 0.31401381 5506 88
-0.37369454 0.34676766 0.30414742 5687 89
-0.37372631 0.34760705 0.29447192 5338 90
-0.3744005 0.34895495 0.28493878 5326 91
-0.37494397 0.35019886 0.27538317 5558 92
-0.37457949 0.3507171 0.26570937 5414 93
-0.37486082 0.35175017 0.25613496 5521 94
-0.37578934 0.35330334 0.24661082 5978 95
-0.37658715 0.35475451 0.23704115 5618 96
-0.31035775 0.30211508 0.22492114 785 97
-0.31092966 0.30326414 0.21676652 850 98
-0.31216586 0.30495501 0.20856974 1027 99
-0.3132872 0.30655864 0.20030409 182 100
-0.31119365 0.30554953 0.19213411 853 101
-0.31518024 0.30949906 0.18357648 968 102
-0.31749284 0.31209654 0.17496917 523 103
-0.31428945 0.31018126 0.16688229 871 104
-0.31370693 0.31112513 0.15004556 875 106
-0.31493658 0.31358337 0.13266014 868 108
-0.30059898 0.30241284 0.12736073 112 109
-0.31264287 0.313142 0.11581068 2852 110
-0.31394929 0.3149702 0.10665708 2972 111
-0.31287485 0.31482026 0.098089203 2864 112
-0.3109383 0.31395093 0.089768812 3093 113
-0.29412013 0.30057794 0.086760223 560 114
-0.3192119 0.32244501 0.06847316 726 115
-0.31686491 0.32125705 0.059987932 743 116
-0.31730354 0.32242763 0.050293803 631 117
-0.31902862 0.32470304 0.039855987 633 118
-0.32057792 0.32684821 0.029273152 700 119
-0.31769526 0.32523137 0.020727158 710 120
-0.31891823 0.32712728 0.0099648237 640 121
-0.31856322 0.32768935 -0.00013929605 643 122
-0.31597298 0.32634214 -0.0090738237 651 123
-0.31668127 0.32784382 -0.020107239 706 124
-0.31923378 0.33096123 -0.032586634 598 125
-0.31819534 0.33099419 -0.042982399 589 126
-0.31765306 0.33147269 -0.053897947 643 127
-0.319556 0.33410293 -0.066840976 573 128
-0.31666458 0.33256802 -0.076445699 554 129
-0.31748462 0.33429953 -0.089135706 512 130
-0.31933796 0.33697033 -0.10303944 312 131
0.037776366 0.030667191 0.098773345 4356 175
0.039196525 0.029637178 0.09733934 8033 176
0.043553948 0.026537323 0.092220046 3107 179
0.045417476 0.024806892 0.094843425 301 180
1.2355993 -0.82118636 -1.3117338 25 232
1.2608072 -0.84313697 -1.2935709 106 233
1.2939708 -0.87076646 -1.2845281 218 234
0.1955307 -0.094078034 0.062309727 1769 238
0.20240265 -0.099473327 0.060260549 4841 239
1.5649068 -1.0907881 -1.278453 189 240
1.6264694 -1.1399801 -1.2866063 181 241
2.4335239 -1.7940643 -1.284066 141 252
2.4298031 -1.7965281 -1.2189227 154 253
2.4286613 -1.8008631 -1.1563686 163 254
2.4294579 -1.8066026 -1.0957921 200 255
2.4234676 -1.8070796 -1.0324097 162 256
2.4253378 -1.8135064 -0.9740032 160 257
2.4100261 -1.8066485 -0.90803504 143 258
2.4197664 -1.8190207 -0.85475552 189 259
2.4130216 -1.8186169 -0.79457271 186 260
2.4113972 -1.8221145 -0.73733217 191 261
2.4202793 -1.83374 -0.68466163 216 262
2.419318 -1.8376799 -0.62854981 219 263
2.4069755 -1.8553754 -0.29921263 44 269
4.1007652 -3.3921185 1.6562756 46 294
3.9159539 -3.24494 1.6866523 71 295
3.7078621 -3.0774219 1.6994526 93 296
3.5329242 -2.9371827 1.7172256 107 297
3.3654592 -2.8026311 1.7306342 120 298
3.2226148 -2.6884 1.7484776 141 299
3.070668 -2.5658717 1.7553505 166 300
2.9233339 -2.4467092 1.757808 200 301
2.820389 -2.3650565 1.7786531 184 302
2.697922 -2.2662411 1.7834861 199 303
2.5894318 -2.1790121 1.7914436 262 304
2.5054929 -2.1126111 1.8105358 267 305
2.3588626 -1.9915247 1.7833352 301 306
2.2671869 -1.9176334 1.7879015 338 307
2.1828511 -1.8497969 1.7937474 358 308
2.0959544 -1.779398 1.7937986 409 309
2.0240166 -1.7217928 1.8018646 422 310
1.957705 -1.6688765 1.8114835 449 311
1.8874799 -1.6122597 1.8148052 493 312
1.8302581 -1.5669028 1.826739 512 313
1.763622 -1.5129696 1.8273953 530 314
1.7000515 -1.4615105 1.8279345 610 315
1.6489757 -1.4209951 1.8382304 616 316
1.5917982 -1.3748149 1.8399496 573 317
1.5271246 -1.3216439 1.830762 709 318
1.4746174 -1.279214 1.832083 764 319
1.4270793 -1.241098 1.8368275 809 320
1.384861 -1.2076643 1.8459996 815 321
1.3369864 -1.1688989 1.8462663 857 322
1.2922413 -1.1328245 1.848381 903 323
1.2499866 -1.0988809 1.8518388 935 324
1.213167 -1.0698314 1.8611326 911 325
1.1710688 -1.0357317 1.8612283 1030 326
1.12989 -1.0023239 1.8606933 1067 327
1.0953259 -0.97499025 1.8686606 1090 328
1.0581526 -0.94506872 1.8709928 1078 329
1.0149565 -0.90925366 1.8612674 1163 330
0.98126453 -0.88234627 1.8659003 1206 331
0.94995981 -0.8576259 1.8735408 1203 332
0.91711032 -0.83130723 1.8770584 1292 333
0.88245952 -0.80310386 1.8755182 44 334
0.84461081 -0.77159339 1.8654622 100 335
0.82352924 -0.75653344 1.8894854 66 336
0.7983411 -0.73739874 1.9046179 14 337
0.76760542 -0.71263731 1.9062876 39 338
0.74234468 -0.69333345 1.9201084 52 339
0.6886791 -0.64478219 1.8597986 303 340
0.68597746 -0.64857739 1.9309566 59 341
0.63065118 -0.59755552 1.857268 202 342
0.62048632 -0.59376466 1.9101216 143 343
0.59471786 -0.57353026 1.9177685 44 344
0.57884002 -0.56402367 1.9576941 195 345
0.53930169 -0.52860051 1.9173883 94 346
0.51354027 -0.50812918 1.92215 105 347
0.4930352 -0.49359125 1.9468271 258 348
0.4617787 -0.46667796 1.9279252 613 349
0.43416941 -0.44375697 1.9213601 1683 350
0.40829271 -0.42273873 1.9207286 1782 351
0.38278091 -0.40204287 1.9204158 1750 352
0.35828501 -0.38252199 1.9242865 1736 353
0.33257204 -0.36131772 1.9198656 1734 354
0.30798298 -0.34145984 1.9206271 1797 355
0.28350353 -0.3216421 1.9208102 1888 356
0.25972688 -0.3027564 1.9253051 1826 357
0.23583779 -0.2836521 1.9282836 1850 358
0.21170388 -0.26405561 1.9277685 1870 359
-0.87766665 -1.574116 0.060974374 236 0
-0.87842995 -1.5755304 0.085778102 237 1
-0.87903869 -1.5766383 0.11060168 236 2
-0.8794927 -1.5774394 0.13544036 236 3
-0.87979198 -1.5779335 0.16028941 237 4
-0.87993652 -1.5781204 0.18514404 236 5
-0.87992609 -1.5779999 0.2099995 235 6
-0.88696176 -1.5918548 0.2352553 235 7
-0.88663888 -1.5911138 0.26031947 235 8
-0.88615984 -1.5900631 0.28537005 239 9
-0.88552475 -1.5887029 0.31040221 235 10
-0.89146614 -1.6003833 0.33661941 237 11
-0.89051151 -1.5983886 0.36180732 236 12
-0.88940006 -1.5960829 0.38696218 236 13
-0.895284 -1.6076459 0.41402876 234 14
-0.89384693 -1.6046939 0.43932277 238 15
-0.89225239 -1.6014296 0.46456897 235 16
-0.89716673 -1.6110671 0.49220645 234 17
-0.90233648 -1.6212088 0.52037221 236 18
-0.90023661 -1.6169412 0.54586756 236 19
-0.90503478 -1.6263438 0.57455462 236 20
-0.90657616 -1.6291827 0.62907833 235 22
-0.90379894 -1.6235709 0.65468824 233 23
-0.90782827 -1.6314448 0.68433076 233 24
-0.9112131 -1.6380397 0.71403545 236 25
-0.91481912 -1.6450714 0.74432355 234 26
-0.91132343 -1.6380335 0.77017003 235 27
-0.91452116 -1.6442534 0.8008762 236 28
-0.91706961 -1.6491855 0.83156234 234 29
-0.91982061 -1.6545169 0.8628552 233 30
-0.92192042 -1.6585568 0.89408618 231 31
-0.92421269 -1.662976 0.92593396 232 32
-0.91958511 -1.6536921 0.95204288 233 33
-0.92102683 -1.6564243 0.98383248 232 34
-0.92264676 -1.6595075 1.0162536 231 35
-0.92402416 -1.6621089 1.0489218 228 36
-0.93127495 -1.6763339 1.0882242 231 37
-0.931714 -1.6770731 1.121109 229 38
-0.93230963 -1.6781199 1.15464 226 39
-0.93225133 -1.6778708 1.1879175 223 40
-1.2846258 -2.3750172 1.6443131 218 41
-1.2507006 -2.3076973 1.6506613 222 42
-1.2294319 -2.2654259 1.6712049 223 43
-1.1961194 -2.1993318 1.6748543 221 44
-0.85781813 -1.5299308 1.2609367 219 45
-0.85682261 -1.5278274 1.2929872 220 46
-0.85595471 -1.5259745 1.325724 221 47
-0.86044246 -1.534711 1.3669932 221 48
-0.85307008 -1.5199904 1.3910775 220 49
-0.85105622 -1.5158651 1.4236518 220 50
-0.84333134 -1.5004463 1.4474393 222 51
-0.83545864 -1.4847355 1.470986 223 52
-0.83883452 -1.4912596 1.5139548 222 53
-0.83583134 -1.485171 1.5467355 222 54
-0.8329137 -1.4792491 1.5802166 222 55
-0.83488917 -1.4829942 1.6234751 223 56
-0.83102477 -1.475196 1.6565964 224 57
-0.83260787 -1.4781576 1.7011 227 58
-0.83344805 -1.479647 1.7452956 236 59
-0.8184756 -1.4498985 1.7574868 229 60
-0.80382019 -1.4207784 1.7697542 230 61
-0.78372955 -1.3809277 1.7693882 230 62
-0.76409835 -1.3419892 1.7688115 230 63
-0.74957407 -1.3131377 1.7789687 230 64
-0.73016459 -1.2746456 1.7767515 231 65
-0.71542853 -1.2453824 1.7848377 230 66
-0.70071733 -1.2161709 1.7923232 229 67
-0.68632734 -1.1875961 1.7999758 232 68
-0.66737127 -1.1500156 1.7946857 232 69
-0.65283012 -1.1211492 1.8002677 230 70
-0.63861006 -1.0929186 1.8060547 232 71
-0.62415636 -1.0642303 1.8104792 232 72
-0.60975564 -1.0356492 1.8143265 232 73
-0.59567434 -1.007701 1.8184159 233 74
-0.58138752 -0.97935051 1.8211299 233 75
-0.56741869 -0.95162964 1.8241104 230 76
-0.55326283 -0.92354339 1.825708 233 77
-0.53942299 -0.89608282 1.8275968 233 78
-0.52541494 -0.86829418 1.8280971 233 79
-0.51518548 -0.84794778 1.8418149 234 80
-0.501261 -0.82032889 1.8413421 233 81
-0.48764703 -0.79332447 1.8412064 233 82
-0.4773376 -0.77282411 1.8537612 235 83
-0.46360233 -0.74558634 1.8518043 234 84
-0.45017216 -0.71895236 1.8502179 235 85
-0.43980831 -0.69834876 1.8616192 234 86
-0.42629343 -0.67155397 1.8582133 234 87
-0.41307762 -0.64535087 1.8552105 234 88
-0.40268436 -0.62469345 1.8654709 233 89
-0.38942012 -0.59840155 1.8606538 234 90
-0.37899405 -0.57768196 1.8701859 236 91
-0.36588612 -0.55170369 1.8644741 235 92
-0.35543734 -0.53094202 1.8732821 236 93
-0.3449342 -0.51007366 1.8817677 236 94
-0.33218277 -0.48480386 1.8757272 235 95
-0.32166544 -0.46391034 1.8834974 235 96
-0.31110018 -0.44292307 1.8909434 236 97
-0.29843152 -0.41782621 1.8827137 235 98
-0.2878722 -0.39685357 1.8894454 234 99
-0.27727148 -0.37580004 1.8958515 235 100
-0.26663131 -0.35466963 1.9019309 234 101
-0.25595379 -0.33346638 1.9076821 237 102
-0.24524093 -0.31219438 1.9131043 237 103
-0.23310916 -0.28816807 1.9035047 236 104
-0.22242337 -0.2669526 1.9082253 235 105
-0.21170866 -0.24568111 1.9126165 238 106
-0.2009671 -0.22435759 1.9166778 235 107
-0.19020072 -0.20298623 1.9204082 235 108
-0.17941159 -0.18157107 1.9238071 233 109
-0.1686018 -0.16011624 1.9268739 237 110
-0.15777341 -0.13862583 1.9296079 235 111
-0.14692846 -0.11710396 1.9320086 235 112
-0.13606907 -0.095554784 1.9340756 236 113
-0.12519731 -0.073982373 1.9358084 236 114
-0.11431525 -0.052390892 1.9372066 236 115
-0.10342498 -0.030784469 1.9382701 235 116
-0.092528597 -0.0091672502 1.9389987 236 117
-0.081628174 0.012456629 1.9393923 237 118
-0.070719525 0.034155633 1.9544504 238 119
-0.059723843 0.05596577 1.9541713 238 120
-0.048730411 0.077770099 1.9535542 237 121
-0.03774133 0.099564418 1.952599 237 122
-0.026758704 0.1213446 1.9513063 237 123
-0.015279964 0.14417152 1.9656326 237 124
-0.0042171776 0.16610794 1.9636475 238 125
0.0068327412 0.18801741 1.9613224 236 126
0.018619955 0.21144789 1.9735587 234 127
0.029730543 0.23347491 1.97053 237 128
0.040821768 0.25546217 1.9671605 236 129
0.052990347 0.27964854 1.9792541 236 130
0.064134836 0.30173859 1.9751682 236 131
0.075253367 0.32377574 1.9707402 236 132
0.087737158 0.34858266 1.9816575 236 133
0.10029289 0.37352657 1.9911668 234 134
0.11150941 0.39575368 1.9856249 237 135
0.12437639 0.42131555 1.9952811 237 136
0.13728827 0.44696096 2.0035183 235 137
0.14858004 0.4693327 1.9968374 236 138
0.16180438 0.4955982 2.0051813 236 139
0.17504632 0.52189302 2.0120976 236 140
0.1863898 0.5443626 2.0042546 236 141
0.19994438 0.5712778 2.0112374 236 142
0.21363628 0.59846336 2.0177307 236 143
0.2273089 0.62560493 2.0227885 235 144
0.23871654 0.64819545 2.0133371 235 145
0.25270021 0.67595416 2.0184059 235 146
0.26663685 0.70361364 2.0220368 233 147
0.2835016 0.73713839 2.0398579 236 148
0.29792437 0.76576149 2.0432882 234 149
0.30945647 0.78859013 2.0316629 232 150
0.3240082 0.81746507 2.0341101 236 151
0.34164768 0.85251653 2.0494452 235 152
0.35628313 0.8815493 2.0498137 233 153
0.37121311 0.9111675 2.0505192 232 154
0.38601914 0.94053406 2.0497837 234 155
0.40112263 0.97049195 2.0493615 233 156
0.41970444 1.0073991 2.0613034 233 157
0.43852603 1.0447787 2.0724525 233 158
0.45402563 1.0755147 2.0700729 234 159
0.47322863 1.1136446 2.0797112 233 160
0.48893994 1.1447952 2.0760241 235 161
0.50850111 1.1836296 2.0841138 232 162
0.52414531 1.2146384 2.078274 231 163
0.54824215 1.2625154 2.0977411 233 164
0.56840837 1.3025396 2.1032562 232 165
0.5887624 1.3429328 2.1078918 232 166
0.60929728 1.3836812 2.1116376 232 167
0.6302883 1.4253339 2.1152589 232 168
0.65116751 1.4667583 2.1171854 233 169
0.67220563 1.5084938 2.1181922 231 170
0.69339502 1.5505258 2.1182704 231 171
0.71955508 1.6024615 2.1292472 230 172
0.74569201 1.6543434 2.138247 229 173
0.7724033 1.7073623 2.1467249 228 174
0.80410588 1.7703199 2.1645949 229 175
0.83139658 1.8244774 2.1703587 229 176
0.85892671 1.8791047 2.1748161 229 177
0.88668495 1.9341791 2.1779532 228 178
0.91964912 1.9996151 2.1898267 226 179
0.9583323 2.076431 2.2106197 226 180
0.98655558 2.1324072 2.20859 227 181
1.0315055 2.2216804 2.2359223 225 182
1.0606003 2.2793748 2.2312903 224 183
1.1335914 2.4244449 2.3019381 223 184
1.1798605 2.5163019 2.3210793 224 185
1.2157856 2.587559 2.3198748 231 186
1.2173482 2.5904236 2.2612638 231 187
1.2246803 2.6047728 2.2127318 231 188
1.2257164 2.6065969 2.1551507 230 189
1.2319065 2.6186795 2.1061687 232 190
1.2320642 2.6187632 2.0490971 231 191
1.2374853 2.6293211 2.0003085 230 192
1.2429346 2.6399367 1.9520651 232 193
1.2476472 2.6490896 1.9033358 231 194
1.2277582 2.6093194 1.8241519 225 195
1.23197 2.6174841 1.7767731 229 196
1.2477553 2.6486628 1.7434884 230 197
1.2513757 2.655653 1.6958737 230 198
1.254254 2.66117 1.6478968 230 199
1.2571951 2.6668139 1.6004683 231 200
1.2659242 2.6839645 1.5594169 231 201
1.2678238 2.687541 1.5116141 232 202
1.2697989 2.6912689 1.4643556 232 203
1.2710273 2.6935151 1.4168547 230 204
1.2786118 2.7083938 1.3754047 231 205
1.2792116 2.709394 1.3280576 232 206
1.279904 2.7105796 1.2812481 230 207
1.2866435 2.7237804 1.2395449 231 208
1.2931225 2.7364647 1.1976407 231 209
1.292482 2.7350059 1.1507099 230 210
1.29195 2.7337644 1.1043061 231 211
1.2975864 2.744776 1.0622582 231 212
1.3029605 2.7552669 1.0200433 231 213
1.3011019 2.7513943 0.97368723 229 214
1.3059242 2.7607901 0.93137705 230 215
1.3104826 2.7696621 0.88892484 231 216
1.3081772 2.7649057 0.84321165 232 217
1.3121861 2.7726874 0.80070299 228 218
1.3159302 2.7799432 0.7580772 230 219
1.3194085 2.7866714 0.71534252 226 220
1.3226204 2.7928708 0.67250711 230 221
1.3255652 2.7985401 0.62957919 228 222
1.3282427 2.8036785 0.58656698 227 223
1.3306519 2.8082845 0.54347873 228 224
1.3327924 2.8123577 0.50032264 228 225
1.3346641 2.815897 0.45710707 225 226
1.3362665 2.818902 0.41384017 224 227
1.3443391 2.8347447 0.37139636 227 228
1.3526016 2.8509626 0.32854718 230 229
1.3534024 2.852375 0.28474754 228 230
1.35393 2.8532457 0.24092965 227 231
1.360937 2.8669696 0.19713804 229 232
1.3609186 2.8667564 0.15310125 229 233
1.3606259 2.865999 0.10907145 228 234
0.94468927 2.0405297 0.0071269423 228 238
0.94350624 2.038058 -0.024085641 230 239
0.92108721 1.9934827 -0.050176814 220 240
0.87797707 1.9078918 -0.069324091 227 241
0.86918133 1.890336 -0.096305534 228 242
0.86735749 1.8866024 -0.12518181 228 243
0.85824329 1.8684182 -0.15139078 230 244
0.8631708 1.8780669 -0.18274792 228 245
0.86080873 1.8732662 -0.21142681 227 246
0.86918175 1.889619 -0.27528435 222 248
0.86624289 1.8836739 -0.30413467 225 249
0.42234942 1.0036336 -0.18548645 216 256
0.40683442 0.97283894 -0.19017024 216 257
0.39135665 0.94212162 -0.19397344 221 258
0.39524755 0.94976097 -0.21358772 223 259
0.386448 0.93227136 -0.22224213 215 260
0.32956386 0.81952381 -0.20005094 218 262
0.32096142 0.80243552 -0.20611592 219 263
0.31195268 0.78454477 -0.21130078 219 264
0.30295485 0.76667768 -0.21600829 218 265
0.28793532 0.73689479 -0.21347184 212 266
0.27941403 0.71997553 -0.21750902 212 267
0.27686235 0.71487099 -0.22823663 212 268
0.21795103 0.59810704 -0.20486559 223 272
0.22197914 0.6059224 -0.24846838 216 275
0.21923727 0.60044765 -0.25742579 226 276
0.21093148 0.5839715 -0.25757754 224 277
0.20813331 0.57838649 -0.26619393 225 278
0.19412568 0.55064148 -0.25601041 224 279
0.19133809 0.54507947 -0.26411039 224 280
0.18850017 0.53941792 -0.27212352 222 281
0.18003914 0.52264351 -0.26986897 219 282
0.17716585 0.51691329 -0.27753389 217 283
0.16880001 0.50033045 -0.27459228 213 284
0.16589782 0.49454421 -0.28191108 168 285
0.034504674 0.23372845 -0.32719934 129 315
0.02838181 0.2216291 -0.31571227 161 316
0.028037556 0.22087501 -0.3334648 126 317
0.024775088 0.21439156 -0.33644748 145 318
0.01887124 0.20272887 -0.32440746 164 319
-0.040089786 0.087055236 -0.0046338439 211 321
-0.041593287 0.084076703 -0.0036763549 211 322
-0.043359913 0.080584079 -0.00076171756 214 323
-0.045622792 0.076122686 0.0060449094 215 324
-0.046895318 0.073599249 0.0062366724 216 325
-0.048283227 0.070850968 0.007434532 219 326
-0.049884811 0.067686796 0.010615677 222 327
-0.051884707 0.063748345 0.017740339 224 328
-0.053060018 0.061418563 0.018137068 224 329
-0.054423653 0.058723211 0.020526081 226 330
-0.056031194 0.055556033 0.025903642 223 331
-0.056101993 0.05537045 0.014649585 225 332
-0.057191834 0.053206831 0.014202937 225 333
-0.058284402 0.051037926 0.013789833 225 334
-0.059447352 0.048733525 0.014399499 227 335
-0.060600281 0.046449147 0.015046775 230 336
-0.061798461 0.04407914 0.016723961 234 337
-0.063072406 0.041566979 0.020429567 240 338
-0.064470924 0.038823869 0.028162241 241 339
-0.066066928 0.035721213 0.04392159 236 340
-0.066605441 0.034604393 0.031802118 234 341
-0.067514464 0.032788713 0.028679773 236 342
-0.068406768 0.030994283 0.022586033 240 343
-0.069302104 0.029169871 0.010519743 240 344
-0.070417069 0.026958056 0.010479495 237 345
-0.07153222 0.024745984 0.01047352 235 346
-0.072647363 0.022534078 0.010501832 234 347
-0.073762283 0.020322762 0.010564432 235 348
-0.074876755 0.018112458 0.010661289 233 349
-0.075990573 0.01590359 0.010792404 236 350
-0.077103525 0.013696584 0.010957718 234 351
-0.07821539 0.011491858 0.011157244 234 352
-0.079325967 0.0092898384 0.011390924 234 353
-0.08043503 0.0070909448 0.011658698 231 354
-0.08154238 0.0048955977 0.011960536 231 355
-0.0826478 0.002704218 0.012296379 228 356
-0.083751068 0.00051722862 0.012666166 230 357
-0.084851988 -0.0016649589 0.013069779 231 358
-0.085950337 -0.0038419161 0.013507202 231 359
-0.087045923 -0.0060132407 0.013978347 230 360
-0.088231698 -0.0083672777 0.013505489 228 361
-0.089426458 -0.010738958 0.013072178 227 362
-0.090735272 -0.013340626 0.011707455 228 363
-0.092398793 -0.016657349 0.0074859113 225 364
-0.094588324 -0.02103268 -0.00052383542 226 365
-0.096264593 -0.024370212 -0.0036278814 220 366
-0.14930351 -0.1309007 -0.33306533 220 369
-0.15255529 -0.13734108 -0.33059615 220 370
-0.15579152 -0.14375025 -0.32802743 221 371
-0.15901162 -0.15012699 -0.32535952 219 372
-0.16485035 -0.16175739 -0.33746243 224 373
-0.16540088 -0.16277827 -0.31972855 223 374
-0.16592513 -0.16375104 -0.30298501 221 375
-0.18027034 -0.19242166 -0.35662824 229 376
-0.1836675 -0.19914657 -0.35320365 228 377
-0.18994245 -0.21163379 -0.36319894 225 378
-0.19039667 -0.21246599 -0.34604341 225 379
-0.19679436 -0.22519511 -0.35564798 223 380
-0.20354456 -0.23862579 -0.36584121 229 381
-0.20699804 -0.24545959 -0.36169976 232 382
-0.20680982 -0.24494448 -0.32636058 221 384
-0.21349274 -0.25823534 -0.33495718 222 385
-0.21319798 -0.25758177 -0.31779045 219 386
-0.21635164 -0.26381966 -0.31335926 218 387
-0.21551716 -0.26209274 -0.29549927 216 388
-0.21853183 -0.26805469 -0.29099995 212 389
-0.21765079 -0.2662394 -0.2741437 213 390
-0.22053234 -0.27193698 -0.26958191 214 391
-0.2233853 -0.27757758 -0.26493227 214 392
-0.22184232 -0.27444696 -0.24750654 215 393
-0.22455771 -0.27981445 -0.24281983 216 394
-0.22300279 -0.27666429 -0.22641172 214 395
-0.30462599 -0.43926412 -0.39853132 219 398
-0.30827844 -0.44648013 -0.39127761 223 399
-0.31188557 -0.45360565 -0.38391274 222 400
-0.31544656 -0.46063942 -0.37643796 214 401
-0.32369027 -0.47700411 -0.37952346 216 402
-0.32722342 -0.48398119 -0.37168646 219 403
-0.33589259 -0.50119001 -0.37480623 218 404
-0.3443211 -0.5179171 -0.37681651 219 405
-0.3584792 -0.54605353 -0.389826 217 406
-0.36712626 -0.56320995 -0.39083213 217 407
-0.37979037 -0.58829784 -0.38261336 219 409
-0.38857311 -0.60571891 -0.3824895 219 410
-0.39776602 -0.62395447 -0.38255179 217 411
-0.41236925 -0.65295666 -0.39126861 217 412
-0.42173743 -0.67153549 -0.39024633 216 413
-0.43079388 -0.68949175 -0.38817233 214 414
-0.44577461 -0.71923459 -0.39483464 216 415
-0.45533767 -0.73819357 -0.39224356 217 416
-0.46456516 -0.75648296 -0.38862389 219 417
-0.48592204 -0.79889977 -0.40181071 215 418
-0.50141323 -0.82964253 -0.40534443 219 419
-0.49932739 -0.82542068 -0.38430029 223 420
-0.50288218 -0.83241892 -0.37106299 228 421
-0.51222074 -0.85091925 -0.36509955 221 422
-0.55861682 -0.94310647 -0.40378672 230 423
-0.57460082 -0.97481042 -0.4032256 235 424
-0.57827002 -0.9820264 -0.38767141 228 425
-0.58184218 -0.98904938 -0.37200677 213 426
-0.56666028 -0.95879149 -0.33642209 229 427
-0.67156446 -1.1672379 -0.42524767 221 428
-0.68152875 -1.1869533 -0.41279286 226 429
-0.71129245 -1.2460167 -0.41870129 228 430
-0.7341767 -1.2914011 -0.41642785 230 431
-0.74461055 -1.3120395 -0.40184242 236 432
-0.74153721 -1.3058372 -0.37539202 235 433
-0.7450254 -1.3126733 -0.35470986 236 434
-0.74201435 -1.3065976 -0.32899821 239 435
-0.74521345 -1.3128604 -0.30830812 238 436
-0.74828339 -1.3188666 -0.28752267 238 437
-0.74433577 -1.3109337 -0.26202404 238 438
-0.74063319 -1.3034893 -0.23713855 239 439
-0.72980654 -1.281898 -0.20837428 238 440
-0.74575818 -1.3134896 -0.19579227 237 441
-0.75468409 -1.331126 -0.17853816 234 442
-0.75694519 -1.3355266 -0.15748049 238 443
-0.75247598 -1.3265642 -0.13322936 237 444
-0.75445497 -1.3304055 -0.11224611 237 445
-0.75630307 -1.333987 -0.091205075 224 446
-0.45421162 -0.73420709 0.044756308 219 447
-0.46176362 -0.74914938 0.054233789 224 448
-0.46971574 -0.76488417 0.064007059 228 449
-0.45664266 -0.73888725 0.080194205 229 450
-0.48502597 -0.79516941 0.085052855 221 451
-0.76462668 -1.3499875 0.036028355 235 452
-0.76555055 -1.3517346 0.05736056 239 453
0.18799029 -0.24508458 1.9306411 1777 0
0.16441631 -0.22634806 1.9349573 1866 1
0.14041252 -0.20655239 1.9308196 1888 2
0.11695921 -0.18799093 1.9360555 1867 3
0.093365327 -0.16902113 1.9377893 1886 4
0.069804445 -0.15020108 1.940986 1873 5
0.046216458 -0.1312311 1.9426612 1864 6
0.022704273 -0.11194269 1.9398193 1930 7
-0.00097668171 -0.093228087 1.9454271 1858 8
-0.024867356 -0.074467152 1.9525042 1966 9
-0.048628613 -0.055346891 1.9540615 1902 10
-0.072630271 -0.036238641 1.9580777 1791 11
-0.097158611 -0.017077165 1.9665354 1775 12
-0.12081589 0.0023456644 1.9634931 1807 13
-0.14507072 0.021795956 1.965881 1831 14
-0.16952552 0.041371197 1.9687098 1751 15
-0.1940729 0.061068401 1.9709805 1785 16
-0.21870486 0.080881432 1.9726887 1796 17
-0.24357979 0.10085618 1.9748144 1756 18
-0.26801068 0.12076734 1.9734184 1676 19
-0.29399174 0.14132345 1.9792883 1657 20
-0.31874067 0.16150731 1.9777132 1697 21
-0.34504002 0.1824241 1.98236 1686 22
-0.3689782 0.20237575 1.9757359 1731 23
-0.38399523 0.21805894 1.9339195 967 24
-0.38534451 0.2266317 1.8449762 823 25
-0.38603073 0.23415932 1.7620734 872 26
-0.3868627 0.24113943 1.6870854 901 27
-0.38726896 0.24735205 1.6171227 1131 28
-0.38868332 0.25364619 1.5559026 1158 29
-0.37252647 0.2495902 1.4484729 1372 30
-0.37360412 0.25475881 1.3973935 1388 31
-0.37687576 0.26091358 1.3557245 1373 32
-0.3752079 0.26389509 1.3042014 1656 33
-0.37449211 0.2671642 1.2584313 1681 34
-0.37457258 0.27067775 1.2174252 1872 35
-0.37642205 0.27508169 1.1828742 1865 36
-0.37584144 0.27779821 1.1449773 1961 37
-0.37686241 0.28135139 1.1125615 2080 38
-0.37670469 0.28400639 1.0794704 2244 39
-0.37885362 0.28800926 1.0525739 2279 40
-0.37994951 0.29121941 1.0249584 2389 41
-0.37304705 0.28905764 0.98416412 2264 42
-0.37509584 0.29265147 0.96116745 2327 43
-0.37664682 0.29583305 0.93827629 2503 44
-0.37671775 0.29794058 0.91389811 2604 45
-0.37625825 0.2996034 0.88969791 2793 46
-0.37887251 0.3032794 0.87117207 2904 47
-0.37796527 0.30448684 0.84807307 2714 48
-0.37816739 0.30638409 0.82745957 2825 49
-0.37957311 0.30905476 0.80924463 3089 50
-0.377846 0.30948955 0.7874347 3141 51
-0.38016659 0.31269661 0.77165532 2850 52
-0.37989694 0.3140415 0.75306493 2866 53
-0.37518609 0.31218842 0.72971475 3020 54
-0.37588662 0.31411174 0.71359295 3297 55
-0.37747735 0.31663418 0.69892281 3601 56
-0.37758249 0.31805992 0.68298209 3774 57
-0.37923455 0.32056504 0.66910881 3410 58
-0.37876558 0.32150865 0.65336984 3923 59
-0.37863487 0.32266262 0.63838786 3891 60
-0.37822974 0.32358468 0.62352049 4076 61
-0.37820154 0.32475165 0.60937166 4063 62
-0.37923139 0.32666939 0.59648895 4240 63
-0.37871653 0.32742667 0.58252323 4146 64
-0.37996376 0.32946229 0.57033348 4340 65
-0.37695241 0.32831639 0.5549469 4456 66
-0.37502742 0.32794425 0.54082614 4285 67
-0.37561125 0.32941952 0.52890801 4468 68
-0.376001 0.33073309 0.51704299 4467 69
-0.37619877 0.33188623 0.50523609 4721 70
-0.37549943 0.33234614 0.49302894 4550 71
-0.37602657 0.33371606 0.48181701 4568 72
-0.3756609 0.33439553 0.47021478 5008 73
-0.37438881 0.33436903 0.45827407 5102 74
-0.37438208 0.3352907 0.44724941 5192 75
-0.37567204 0.33719355 0.43704978 5083 76
-0.37460101 0.33727685 0.42574 4864 77
-0.37261426 0.33663985 0.41417444 5303 78
-0.37193912 0.33699769 0.40341449 5610 79
-0.37260133 0.33837917 0.39336622 5518 80
-0.37311888 0.33964258 0.38332847 5356 81
-0.37273622 0.34019962 0.37301832 5226 82
-0.37220424 0.34063134 0.36275902 5342 83
-0.37228656 0.34153497 0.35280699 5286 84
-0.37375718 0.34352165 0.34335098 5757 85
-0.3743304 0.34480304 0.33363581 5674 86
-0.37399912 0.34536889 0.32371539 5601 87
-0.37430036 0.34642881 0.31401381 5506 88
-0.37369454 0.34676766 0.30414742 5687 89
-0.37372631 0.34760705 0.29447192 5338 90
-0.3744005 0.34895495 0.28493878 5326 91
-0.37494397 0.35019886 0.27538317 5558 92
-0.37457949 0.3507171 0.26570937 5414 93
-0.37486082 0.35175017 0.25613496 5521 94
-0.37578934 0.35330334 0.24661082 5978 95
-0.37658715 0.35475451 0.23704115 5618 96
-0.31035775 0.30211508 0.22492114 785 97
-0.31092966 0.30326414 0.21676652 850 98
-0.31216586 0.30495501 0.20856974 1027 99
-0.3132872 0.30655864 0.20030409 182 100
-0.31119365 0.30554953 0.19213411 853 101
-0.31518024 0.30949906 0.18357648 968 102
-0.31749284 0.31209654 0.17496917 523 103
-0.31428945 0.31018126 0.16688229 871 104
-0.31370693 0.31112513 0.15004556 875 106
-0.31493658 0.31358337 0.13266014 868 108
-0.30059898 0.30241284 0.12736073 112 109
-0.31264287 0.313142 0.11581068 2852 110
-0.31394929 0.3149702 0.10665708 2972 111
